ply
format ascii 1.0
element vertex 616
property float x
property float y
property float z
property uchar red
property uchar green
property uchar blue
end_header
-0.26285627 -0.02550840 6.11625768 190 183 167
0.04047262 0.56937070 6.33408276 195 181 155
0.21543740 0.08114921 6.27131045 89 100 106
0.40209235 0.04579589 6.36393272 167 158 144
-0.13856292 0.15540459 6.17528847 81 95 105
-0.04243681 -0.65586814 5.94159881 145 131 118
-0.06200958 0.14533236 6.19041116 146 158 166
-0.20837251 1.19586760 6.48215380 85 102 111
0.21688037 1.46621678 6.63426066 142 102 77
-0.05859687 0.97432978 6.41777716 199 192 173
-0.91639882 0.75221012 6.65293037 188 188 178
0.09562086 0.56487914 6.34398545 181 176 157
-0.77098824 -0.17617941 6.13708204 82 109 123
-0.31352534 1.35901152 6.58012202 92 110 120
-0.31517058 1.36401203 6.59418772 96 114 123
0.42897371 -0.15579944 6.34466911 172 181 189
0.28028991 0.55893161 6.38828873 198 184 158
0.15098010 -0.91090296 5.92897932 220 213 195
-0.49550364 0.42690122 6.26303109 114 132 146
0.06980429 -0.67698520 5.97298146 157 139 127
0.48297525 -0.01565348 6.42677372 110 117 123
0.59803250 0.73547478 6.64789986 78 91 99
0.32398341 -0.74520974 6.10550816 143 121 108
0.39016113 0.63051590 6.47862491 197 186 166
-0.25025159 0.20212608 6.15836569 182 177 160
0.08802256 0.54631849 6.35436376 39 39 33
-0.45007010 -0.59021109 5.90045088 170 170 164
0.01057168 -0.67663850 5.96070303 75 72 72
0.11272859 -0.69162365 5.99622131 151 134 124
-0.32742186 -0.60012456 5.90897644 155 147 133
-0.22060215 -0.42227010 5.99328224 53 62 67
0.22854014 -0.31064193 6.17141291 182 169 153
0.11706275 -0.28529528 6.14007540 155 146 130
-0.76985622 -0.77357709 5.92647009 142 160 170
-0.39947763 -0.59660372 5.89776336 152 145 136
-1.24266847 -0.60177415 6.39006915 189 195 183
0.03833443 0.54888593 6.34524084 185 171 145
0.28761351 2.38422696 5.99744628 138 135 126
-0.43207933 -0.61331512 5.89652459 72 86 95
-1.11757552 -0.58549116 6.25140535 204 212 199
0.10497577 0.40249258 6.32558524 255 250 229
-0.01959939 -0.37205136 6.07202635 47 61 72
0.27556744 -0.33477304 6.19762905 64 66 67
-0.05448786 -0.37302403 6.05965470 54 68 79
0.61114654 0.66258745 6.65106812 10 18 21
0.05330396 0.52680264 6.34359851 30 32 30
0.43931387 -0.78409127 6.18304012 171 160 151
0.03836460 0.52672805 6.33419444 219 209 189
0.57252475 0.71782563 6.61688758 19 24 27
-0.19837271 -0.42782082 5.99657201 52 61 68
-0.13322159 -0.34627415 6.03912025 51 68 80
0.42212052 0.45674467 6.45043532 171 158 141
-0.20173957 0.03692200 6.13410958 48 64 78
-0.00987408 -0.67215926 5.95533521 64 61 64
-0.16600808 -0.21834040 6.05858337 195 190 171
-0.05448786 -0.37302403 6.05965470 54 68 79
-0.39947763 -0.59660372 5.89776336 152 145 136
-0.86856102 -0.75910968 5.97947769 125 148 164
-0.24068243 -0.25304941 6.03749220 44 60 73
-0.33245307 -0.33424400 5.99935185 64 80 92
-0.58231793 0.02760415 6.13803928 211 216 205
-0.19271221 -0.24391298 6.05576614 53 67 76
0.79927007 1.13197535 7.05940454 53 50 45
0.07072276 -0.49104466 6.07798796 42 46 53
-0.13322159 -0.34627415 6.03912025 51 68 80
0.57356608 -0.02509144 6.50484952 170 165 157
-0.01928492 -0.47089890 6.05380399 53 56 61
-0.81424344 -0.75381084 5.94642964 116 134 150
-0.10903710 -0.84141545 5.82551326 184 177 159
0.03009504 0.61922621 6.32771547 198 186 162
0.08380992 0.42085679 6.32096640 230 255 255
0.13922707 1.50264324 6.63908975 130 94 72
0.47848850 1.20382066 6.69732805 77 82 85
-0.40793149 -0.19175899 6.04668969 59 69 71
-0.00572579 0.47381650 6.31131693 142 156 167
0.11108091 -0.88563761 5.90355601 117 124 129
0.02430500 -0.39991555 6.08432344 48 63 74
0.05959769 -0.41592306 6.09150035 53 66 78
0.42508220 0.83459017 6.55865024 99 108 114
0.07948028 0.01106743 6.19528643 42 56 67
-0.22331501 -0.63150909 5.91626287 70 71 73
0.26451583 -0.12244462 6.25068381 43 49 54
-0.76985622 -0.77357709 5.92647009 142 160 170
-0.09527079 -0.44298045 6.03275330 56 66 74
0.54902652 -0.04468606 6.48724260 86 98 106
-0.23915229 0.19429433 6.16368355 217 216 204
-0.09527079 -0.44298045 6.03275330 56 66 74
0.04467796 -0.34169551 6.09508838 42 54 64
-0.18308461 -0.01822061 6.12054014 50 64 73
0.10476566 1.69303057 6.01385041 218 225 218
0.50824982 0.62937213 6.54619991 72 83 89
0.07518874 -0.88432969 5.88319377 189 183 166
0.59980186 0.15003905 6.56302283 181 178 171
0.32757441 1.24593159 6.63779584 79 88 93
-0.25946414 -0.32786772 6.01527436 44 62 72
0.14874156 -0.45274229 6.10963588 56 66 76
0.14350493 -0.48774095 6.10032198 52 62 73
-0.32695733 0.00683190 6.10627037 52 68 76
-0.13781716 -0.02772263 6.12908400 65 74 82
0.16434554 -0.50961807 6.10220279 78 87 95
-0.25515378 -0.27782922 6.02637594 57 74 86
-0.40782702 0.21874533 6.16976254 202 202 190
-0.10972333 -0.35049144 6.04753988 53 67 77
0.35376117 -0.55563150 6.17368770 50 59 67
-0.11168418 -0.36852171 6.04404219 56 70 79
-0.33245307 -0.33424400 5.99935185 64 80 92
0.14955140 -0.51998592 6.10155952 171 162 152
0.14350493 -0.48774095 6.10032198 52 62 73
0.05770691 -0.26461737 6.12501000 190 182 163
-0.35960073 -0.39809171 5.97800562 37 57 69
0.14874156 -0.45274229 6.10963588 56 66 76
-0.15394986 -0.43872714 6.00936526 49 53 60
-0.07824392 0.06306804 6.16813667 47 62 75
0.66280923 0.75330022 6.69285280 190 185 170
-0.11989808 0.01146695 6.14572824 52 67 79
-0.95121886 -0.57766560 6.10916842 96 114 119
-0.43065199 -0.32079727 5.99936173 69 88 102
-0.08365096 0.01311375 6.14641495 48 63 76
0.05959769 -0.41592306 6.09150035 53 66 78
0.10587514 -0.85562887 5.90185524 54 61 69
0.07948028 0.01106743 6.19528643 42 56 67
0.45481757 -0.18255228 6.36383574 67 74 81
-0.25473584 -0.00461036 6.11292694 86 96 102
0.10497577 0.40249258 6.32558524 255 250 229
-0.85099383 -0.36803004 6.11313615 82 104 115
-0.17501654 -0.43372981 6.00183437 59 66 71
-0.06009813 -0.42453559 6.04651646 47 61 72
0.07948028 0.01106743 6.19528643 42 56 67
0.31225291 -0.54522395 6.15381942 65 66 73
-0.19223982 -0.35889293 6.02380533 59 73 84
0.09739969 -0.82564859 5.90067627 51 55 64
-0.08627012 -0.45524400 6.03074791 53 59 65
-0.81424344 -0.75381084 5.94642964 116 134 150
0.25709183 -0.32969175 6.19094049 62 67 71
0.02498491 1.65299208 6.59864023 33 37 38
0.36432221 0.29260826 6.37761374 48 57 64
0.42077078 -0.63118658 6.21421926 202 188 172
0.56053423 0.57233671 6.58839421 187 179 163
-0.11703888 -0.43765861 6.02545739 48 57 66
0.60251203 -0.03783361 6.53875949 201 198 189
0.02430500 -0.39991555 6.08432344 48 63 74
0.04467796 -0.34169551 6.09508838 42 54 64
0.03202251 0.13375203 6.20403124 66 73 79
0.54766986 -0.82893984 6.30051830 192 194 193
0.02557301 0.46438665 6.32034072 16 21 25
-0.37411288 -0.67673178 5.85279858 49 65 76
0.07072276 -0.49104466 6.07798796 42 46 53
-0.26560651 -0.41438574 5.98568065 61 74 85
-0.02120984 -0.38932094 6.06507674 45 59 70
0.23424559 -0.48871244 6.12967801 53 63 73
0.57300665 0.38158190 6.56710686 169 166 158
0.26066539 -0.89334689 5.99113354 53 62 71
0.02609302 -0.86189161 5.86622921 72 81 89
0.25031741 0.09647273 6.27724185 207 196 176
-0.05304832 -0.83375179 5.83185423 54 64 73
-0.39861337 -0.67480257 5.86021068 58 74 87
0.40588183 0.66304736 6.46351617 23 28 31
-0.21975168 -0.78804613 5.80834376 67 81 90
0.71979554 0.30125477 6.80301849 178 188 187
-0.31232839 -0.40588631 5.98345757 51 65 73
0.27015912 -0.88622192 5.99825811 48 57 66
-0.23915229 0.19429433 6.16368355 217 216 204
-0.45313234 -0.39506905 5.98439531 191 198 187
0.83479760 1.04105256 7.04520207 180 181 175
-0.08960866 -0.03827511 6.13655123 39 48 52
-0.04115870 -0.46577280 6.04756142 53 61 65
0.65933698 1.26075329 6.93316570 51 41 35
-0.32394074 -0.68254487 5.85017144 54 67 76
-0.39804146 -0.65881105 5.86325891 59 75 88
0.25146022 -0.88121323 5.98912753 52 59 69
0.14048182 -0.50578498 6.09830622 46 55 62
0.16753172 -0.87427352 5.93519054 76 84 94
0.30792340 -0.00410803 6.29538855 52 62 70
-0.61715082 -0.57474853 5.93328593 195 199 192
0.22854812 -0.89304841 5.96882353 57 66 75
-0.21018532 -0.81563698 5.80858547 57 70 76
-0.23070205 -0.77870787 5.81925922 60 76 89
-0.02727375 -0.82215503 5.84575522 57 66 75
0.07168925 1.47857824 6.68759150 156 140 124
0.13818892 -0.85536939 5.92168633 71 80 89
0.15017179 -0.30319236 6.14787035 59 62 61
-0.47234114 -0.87923692 5.86749434 244 238 221
-0.88343558 -0.63688786 6.04036032 84 110 126
0.20644121 -0.51922663 6.11377344 68 73 81
0.10587514 -0.85562887 5.90185524 54 61 69
0.15936755 -0.34977408 6.13626108 58 66 77
-0.85099383 -0.36803004 6.11313615 82 104 115
0.59783723 -0.87063809 6.38303500 98 119 136
0.42695716 -0.49936660 6.24619687 61 66 77
0.04875552 -0.48646636 6.07326727 46 52 59
-0.16290491 -0.18393249 6.07291699 147 140 121
-0.31797556 -0.77816918 5.81050323 75 91 104
-0.31255283 -0.72587846 5.82648145 64 78 87
-0.28345059 -0.80746788 5.80919803 54 68 77
-0.01489565 -0.81550193 5.84945150 60 67 75
-0.00124929 -0.86479110 5.84692324 220 210 192
0.62714209 0.34521808 6.63112082 179 184 183
1.47753704 2.11798419 6.48733621 61 61 59
-0.10128728 -0.26471551 6.07438624 54 67 75
0.63495317 0.55630109 6.64026218 14 21 23
-0.25515378 -0.27782922 6.02637594 57 74 86
0.12630857 -0.86221609 5.90041065 59 68 77
0.09065588 -0.30007878 6.12495732 58 67 75
0.41139842 -0.46010738 6.23937069 56 65 74
-0.22008548 -0.06115292 6.09375217 205 198 179
-0.22894549 -0.36953999 6.00761604 173 187 190
0.30057188 -0.90380771 6.02153705 59 71 83
0.09718198 -0.84364291 5.90177414 49 54 64
-0.79953915 -0.12639380 6.16381460 175 176 158
-0.32387393 -0.71547745 5.83515548 62 76 87
0.39667855 -0.42087757 6.24679566 48 55 63
0.65125243 0.11356747 6.60195184 195 195 187
-0.82920599 0.42162404 6.40913756 65 87 100
0.66516058 0.32573234 6.69410888 199 207 207
0.40775119 -0.49328658 6.23140735 59 66 74
0.71071687 0.08323521 6.71362232 180 185 188
-0.32327984 -0.63599009 5.87989198 53 63 73
0.40773219 1.47855483 6.72011495 159 130 110
-0.36609994 -0.06980220 6.07699542 213 208 188
-0.88343558 -0.63688786 6.04036032 84 110 126
0.06410603 1.98567270 5.71133268 139 144 137
-0.32231700 -0.65172881 5.86788543 46 59 68
-1.35361705 -0.67088170 6.52973683 108 125 133
-0.30702715 -0.76070072 5.81334721 192 208 218
0.42627118 -0.51667775 6.24272606 43 50 60
-1.33929954 -0.24143088 6.60348549 173 176 169
0.62766749 0.32074448 6.62785062 83 100 111
0.49897130 1.43359203 6.53557366 34 42 45
-0.16290491 -0.18393249 6.07291699 147 140 121
0.56171295 1.43066537 6.19383227 155 167 169
0.46684018 -0.76013416 6.21035528 210 199 189
0.12138561 1.57785662 6.69528221 140 109 88
0.00000000 0.00000000 0.00000000 88 166 255
-0.00260870 -0.00182609 0.00521739 88 166 255
-0.00521739 -0.00365217 0.01043478 88 166 255
-0.00782609 -0.00547826 0.01565217 88 166 255
-0.01043478 -0.00730435 0.02086957 88 166 255
-0.01304348 -0.00913043 0.02608696 88 166 255
-0.01565217 -0.01095652 0.03130435 88 166 255
-0.01826087 -0.01278261 0.03652174 88 166 255
-0.02086957 -0.01460870 0.04173913 88 166 255
-0.02347826 -0.01643478 0.04695652 88 166 255
-0.02608696 -0.01826087 0.05217391 88 166 255
-0.02869565 -0.02008696 0.05739130 88 166 255
-0.03130435 -0.02191304 0.06260870 88 166 255
-0.03391304 -0.02373913 0.06782609 88 166 255
-0.03652174 -0.02556522 0.07304348 88 166 255
-0.03913043 -0.02739130 0.07826087 88 166 255
-0.04173913 -0.02921739 0.08347826 88 166 255
-0.04434783 -0.03104348 0.08869565 88 166 255
-0.04695652 -0.03286957 0.09391304 88 166 255
-0.04956522 -0.03469565 0.09913043 88 166 255
-0.05217391 -0.03652174 0.10434783 88 166 255
-0.05478261 -0.03834783 0.10956522 88 166 255
-0.05739130 -0.04017391 0.11478261 88 166 255
-0.06000000 -0.04200000 0.12000000 88 166 255
0.00000000 0.00000000 0.00000000 88 166 255
0.00260870 -0.00182609 0.00521739 88 166 255
0.00521739 -0.00365217 0.01043478 88 166 255
0.00782609 -0.00547826 0.01565217 88 166 255
0.01043478 -0.00730435 0.02086957 88 166 255
0.01304348 -0.00913043 0.02608696 88 166 255
0.01565217 -0.01095652 0.03130435 88 166 255
0.01826087 -0.01278261 0.03652174 88 166 255
0.02086957 -0.01460870 0.04173913 88 166 255
0.02347826 -0.01643478 0.04695652 88 166 255
0.02608696 -0.01826087 0.05217391 88 166 255
0.02869565 -0.02008696 0.05739130 88 166 255
0.03130435 -0.02191304 0.06260870 88 166 255
0.03391304 -0.02373913 0.06782609 88 166 255
0.03652174 -0.02556522 0.07304348 88 166 255
0.03913043 -0.02739130 0.07826087 88 166 255
0.04173913 -0.02921739 0.08347826 88 166 255
0.04434783 -0.03104348 0.08869565 88 166 255
0.04695652 -0.03286957 0.09391304 88 166 255
0.04956522 -0.03469565 0.09913043 88 166 255
0.05217391 -0.03652174 0.10434783 88 166 255
0.05478261 -0.03834783 0.10956522 88 166 255
0.05739130 -0.04017391 0.11478261 88 166 255
0.06000000 -0.04200000 0.12000000 88 166 255
0.00000000 0.00000000 0.00000000 88 166 255
0.00260870 0.00182609 0.00521739 88 166 255
0.00521739 0.00365217 0.01043478 88 166 255
0.00782609 0.00547826 0.01565217 88 166 255
0.01043478 0.00730435 0.02086957 88 166 255
0.01304348 0.00913043 0.02608696 88 166 255
0.01565217 0.01095652 0.03130435 88 166 255
0.01826087 0.01278261 0.03652174 88 166 255
0.02086957 0.01460870 0.04173913 88 166 255
0.02347826 0.01643478 0.04695652 88 166 255
0.02608696 0.01826087 0.05217391 88 166 255
0.02869565 0.02008696 0.05739130 88 166 255
0.03130435 0.02191304 0.06260870 88 166 255
0.03391304 0.02373913 0.06782609 88 166 255
0.03652174 0.02556522 0.07304348 88 166 255
0.03913043 0.02739130 0.07826087 88 166 255
0.04173913 0.02921739 0.08347826 88 166 255
0.04434783 0.03104348 0.08869565 88 166 255
0.04695652 0.03286957 0.09391304 88 166 255
0.04956522 0.03469565 0.09913043 88 166 255
0.05217391 0.03652174 0.10434783 88 166 255
0.05478261 0.03834783 0.10956522 88 166 255
0.05739130 0.04017391 0.11478261 88 166 255
0.06000000 0.04200000 0.12000000 88 166 255
0.00000000 0.00000000 0.00000000 88 166 255
-0.00260870 0.00182609 0.00521739 88 166 255
-0.00521739 0.00365217 0.01043478 88 166 255
-0.00782609 0.00547826 0.01565217 88 166 255
-0.01043478 0.00730435 0.02086957 88 166 255
-0.01304348 0.00913043 0.02608696 88 166 255
-0.01565217 0.01095652 0.03130435 88 166 255
-0.01826087 0.01278261 0.03652174 88 166 255
-0.02086957 0.01460870 0.04173913 88 166 255
-0.02347826 0.01643478 0.04695652 88 166 255
-0.02608696 0.01826087 0.05217391 88 166 255
-0.02869565 0.02008696 0.05739130 88 166 255
-0.03130435 0.02191304 0.06260870 88 166 255
-0.03391304 0.02373913 0.06782609 88 166 255
-0.03652174 0.02556522 0.07304348 88 166 255
-0.03913043 0.02739130 0.07826087 88 166 255
-0.04173913 0.02921739 0.08347826 88 166 255
-0.04434783 0.03104348 0.08869565 88 166 255
-0.04695652 0.03286957 0.09391304 88 166 255
-0.04956522 0.03469565 0.09913043 88 166 255
-0.05217391 0.03652174 0.10434783 88 166 255
-0.05478261 0.03834783 0.10956522 88 166 255
-0.05739130 0.04017391 0.11478261 88 166 255
-0.06000000 0.04200000 0.12000000 88 166 255
-0.06000000 -0.04200000 0.12000000 88 166 255
-0.05478261 -0.04200000 0.12000000 88 166 255
-0.04956522 -0.04200000 0.12000000 88 166 255
-0.04434783 -0.04200000 0.12000000 88 166 255
-0.03913043 -0.04200000 0.12000000 88 166 255
-0.03391304 -0.04200000 0.12000000 88 166 255
-0.02869565 -0.04200000 0.12000000 88 166 255
-0.02347826 -0.04200000 0.12000000 88 166 255
-0.01826087 -0.04200000 0.12000000 88 166 255
-0.01304348 -0.04200000 0.12000000 88 166 255
-0.00782609 -0.04200000 0.12000000 88 166 255
-0.00260870 -0.04200000 0.12000000 88 166 255
0.00260870 -0.04200000 0.12000000 88 166 255
0.00782609 -0.04200000 0.12000000 88 166 255
0.01304348 -0.04200000 0.12000000 88 166 255
0.01826087 -0.04200000 0.12000000 88 166 255
0.02347826 -0.04200000 0.12000000 88 166 255
0.02869565 -0.04200000 0.12000000 88 166 255
0.03391304 -0.04200000 0.12000000 88 166 255
0.03913043 -0.04200000 0.12000000 88 166 255
0.04434783 -0.04200000 0.12000000 88 166 255
0.04956522 -0.04200000 0.12000000 88 166 255
0.05478261 -0.04200000 0.12000000 88 166 255
0.06000000 -0.04200000 0.12000000 88 166 255
0.06000000 -0.04200000 0.12000000 88 166 255
0.06000000 -0.03834783 0.12000000 88 166 255
0.06000000 -0.03469565 0.12000000 88 166 255
0.06000000 -0.03104348 0.12000000 88 166 255
0.06000000 -0.02739130 0.12000000 88 166 255
0.06000000 -0.02373913 0.12000000 88 166 255
0.06000000 -0.02008696 0.12000000 88 166 255
0.06000000 -0.01643478 0.12000000 88 166 255
0.06000000 -0.01278261 0.12000000 88 166 255
0.06000000 -0.00913043 0.12000000 88 166 255
0.06000000 -0.00547826 0.12000000 88 166 255
0.06000000 -0.00182609 0.12000000 88 166 255
0.06000000 0.00182609 0.12000000 88 166 255
0.06000000 0.00547826 0.12000000 88 166 255
0.06000000 0.00913043 0.12000000 88 166 255
0.06000000 0.01278261 0.12000000 88 166 255
0.06000000 0.01643478 0.12000000 88 166 255
0.06000000 0.02008696 0.12000000 88 166 255
0.06000000 0.02373913 0.12000000 88 166 255
0.06000000 0.02739130 0.12000000 88 166 255
0.06000000 0.03104348 0.12000000 88 166 255
0.06000000 0.03469565 0.12000000 88 166 255
0.06000000 0.03834783 0.12000000 88 166 255
0.06000000 0.04200000 0.12000000 88 166 255
0.06000000 0.04200000 0.12000000 88 166 255
0.05478261 0.04200000 0.12000000 88 166 255
0.04956522 0.04200000 0.12000000 88 166 255
0.04434783 0.04200000 0.12000000 88 166 255
0.03913043 0.04200000 0.12000000 88 166 255
0.03391304 0.04200000 0.12000000 88 166 255
0.02869565 0.04200000 0.12000000 88 166 255
0.02347826 0.04200000 0.12000000 88 166 255
0.01826087 0.04200000 0.12000000 88 166 255
0.01304348 0.04200000 0.12000000 88 166 255
0.00782609 0.04200000 0.12000000 88 166 255
0.00260870 0.04200000 0.12000000 88 166 255
-0.00260870 0.04200000 0.12000000 88 166 255
-0.00782609 0.04200000 0.12000000 88 166 255
-0.01304348 0.04200000 0.12000000 88 166 255
-0.01826087 0.04200000 0.12000000 88 166 255
-0.02347826 0.04200000 0.12000000 88 166 255
-0.02869565 0.04200000 0.12000000 88 166 255
-0.03391304 0.04200000 0.12000000 88 166 255
-0.03913043 0.04200000 0.12000000 88 166 255
-0.04434783 0.04200000 0.12000000 88 166 255
-0.04956522 0.04200000 0.12000000 88 166 255
-0.05478261 0.04200000 0.12000000 88 166 255
-0.06000000 0.04200000 0.12000000 88 166 255
-0.06000000 0.04200000 0.12000000 88 166 255
-0.06000000 0.03834783 0.12000000 88 166 255
-0.06000000 0.03469565 0.12000000 88 166 255
-0.06000000 0.03104348 0.12000000 88 166 255
-0.06000000 0.02739130 0.12000000 88 166 255
-0.06000000 0.02373913 0.12000000 88 166 255
-0.06000000 0.02008696 0.12000000 88 166 255
-0.06000000 0.01643478 0.12000000 88 166 255
-0.06000000 0.01278261 0.12000000 88 166 255
-0.06000000 0.00913043 0.12000000 88 166 255
-0.06000000 0.00547826 0.12000000 88 166 255
-0.06000000 0.00182609 0.12000000 88 166 255
-0.06000000 -0.00182609 0.12000000 88 166 255
-0.06000000 -0.00547826 0.12000000 88 166 255
-0.06000000 -0.00913043 0.12000000 88 166 255
-0.06000000 -0.01278261 0.12000000 88 166 255
-0.06000000 -0.01643478 0.12000000 88 166 255
-0.06000000 -0.02008696 0.12000000 88 166 255
-0.06000000 -0.02373913 0.12000000 88 166 255
-0.06000000 -0.02739130 0.12000000 88 166 255
-0.06000000 -0.03104348 0.12000000 88 166 255
-0.06000000 -0.03469565 0.12000000 88 166 255
-0.06000000 -0.03834783 0.12000000 88 166 255
-0.06000000 -0.04200000 0.12000000 88 166 255
-0.17743551 -0.93608784 -0.30373706 255 123 114
-0.17987725 -0.93738184 -0.29828504 255 123 114
-0.18231899 -0.93867583 -0.29283302 255 123 114
-0.18476073 -0.93996983 -0.28738100 255 123 114
-0.18720248 -0.94126383 -0.28192898 255 123 114
-0.18964422 -0.94255783 -0.27647696 255 123 114
-0.19208596 -0.94385182 -0.27102494 255 123 114
-0.19452770 -0.94514582 -0.26557292 255 123 114
-0.19696944 -0.94643982 -0.26012090 255 123 114
-0.19941119 -0.94773382 -0.25466888 255 123 114
-0.20185293 -0.94902781 -0.24921686 255 123 114
-0.20429467 -0.95032181 -0.24376484 255 123 114
-0.20673641 -0.95161581 -0.23831282 255 123 114
-0.20917816 -0.95290981 -0.23286080 255 123 114
-0.21161990 -0.95420381 -0.22740878 255 123 114
-0.21406164 -0.95549780 -0.22195676 255 123 114
-0.21650338 -0.95679180 -0.21650474 255 123 114
-0.21894512 -0.95808580 -0.21105272 255 123 114
-0.22138687 -0.95937980 -0.20560070 255 123 114
-0.22382861 -0.96067379 -0.20014868 255 123 114
-0.22627035 -0.96196779 -0.19469666 255 123 114
-0.22871209 -0.96326179 -0.18924464 255 123 114
-0.23115383 -0.96455579 -0.18379261 255 123 114
-0.23359558 -0.96584978 -0.17834059 255 123 114
-0.17743551 -0.93608784 -0.30373706 255 123 114
-0.17466262 -0.93740953 -0.29845262 255 123 114
-0.17188974 -0.93873122 -0.29316818 255 123 114
-0.16911686 -0.94005291 -0.28788374 255 123 114
-0.16634397 -0.94137460 -0.28259930 255 123 114
-0.16357109 -0.94269629 -0.27731486 255 123 114
-0.16079821 -0.94401798 -0.27203042 255 123 114
-0.15802532 -0.94533967 -0.26674598 255 123 114
-0.15525244 -0.94666136 -0.26146154 255 123 114
-0.15247955 -0.94798305 -0.25617710 255 123 114
-0.14970667 -0.94930474 -0.25089266 255 123 114
-0.14693379 -0.95062643 -0.24560821 255 123 114
-0.14416090 -0.95194812 -0.24032377 255 123 114
-0.14138802 -0.95326981 -0.23503933 255 123 114
-0.13861514 -0.95459149 -0.22975489 255 123 114
-0.13584225 -0.95591318 -0.22447045 255 123 114
-0.13306937 -0.95723487 -0.21918601 255 123 114
-0.13029648 -0.95855656 -0.21390157 255 123 114
-0.12752360 -0.95987825 -0.20861713 255 123 114
-0.12475072 -0.96119994 -0.20333269 255 123 114
-0.12197783 -0.96252163 -0.19804825 255 123 114
-0.11920495 -0.96384332 -0.19276381 255 123 114
-0.11643207 -0.96516501 -0.18747937 255 123 114
-0.11365918 -0.96648670 -0.18219493 255 123 114
-0.17743551 -0.93608784 -0.30373706 255 123 114
-0.17465480 -0.93377486 -0.29880970 255 123 114
-0.17187409 -0.93146188 -0.29388235 255 123 114
-0.16909338 -0.92914891 -0.28895499 255 123 114
-0.16631267 -0.92683593 -0.28402763 255 123 114
-0.16353196 -0.92452295 -0.27910027 255 123 114
-0.16075125 -0.92220997 -0.27417292 255 123 114
-0.15797054 -0.91989700 -0.26924556 255 123 114
-0.15518983 -0.91758402 -0.26431820 255 123 114
-0.15240912 -0.91527104 -0.25939085 255 123 114
-0.14962841 -0.91295807 -0.25446349 255 123 114
-0.14684770 -0.91064509 -0.24953613 255 123 114
-0.14406699 -0.90833211 -0.24460878 255 123 114
-0.14128628 -0.90601913 -0.23968142 255 123 114
-0.13850557 -0.90370616 -0.23475406 255 123 114
-0.13572486 -0.90139318 -0.22982671 255 123 114
-0.13294415 -0.89908020 -0.22489935 255 123 114
-0.13016344 -0.89676722 -0.21997199 255 123 114
-0.12738273 -0.89445425 -0.21504463 255 123 114
-0.12460202 -0.89214127 -0.21011728 255 123 114
-0.12182131 -0.88982829 -0.20518992 255 123 114
-0.11904060 -0.88751532 -0.20026256 255 123 114
-0.11625989 -0.88520234 -0.19533521 255 123 114
-0.11347918 -0.88288936 -0.19040785 255 123 114
-0.17743551 -0.93608784 -0.30373706 255 123 114
-0.17986942 -0.93374717 -0.29864212 255 123 114
-0.18230334 -0.93140650 -0.29354719 255 123 114
-0.18473726 -0.92906583 -0.28845225 255 123 114
-0.18717117 -0.92672516 -0.28335731 255 123 114
-0.18960509 -0.92438449 -0.27826238 255 123 114
-0.19203900 -0.92204382 -0.27316744 255 123 114
-0.19447292 -0.91970315 -0.26807250 255 123 114
-0.19690683 -0.91736248 -0.26297757 255 123 114
-0.19934075 -0.91502181 -0.25788263 255 123 114
-0.20177467 -0.91268114 -0.25278769 255 123 114
-0.20420858 -0.91034047 -0.24769276 255 123 114
-0.20664250 -0.90799981 -0.24259782 255 123 114
-0.20907641 -0.90565914 -0.23750288 255 123 114
-0.21151033 -0.90331847 -0.23240795 255 123 114
-0.21394424 -0.90097780 -0.22731301 255 123 114
-0.21637816 -0.89863713 -0.22221807 255 123 114
-0.21881208 -0.89629646 -0.21712313 255 123 114
-0.22124599 -0.89395579 -0.21202820 255 123 114
-0.22367991 -0.89161512 -0.20693326 255 123 114
-0.22611382 -0.88927445 -0.20183832 255 123 114
-0.22854774 -0.88693378 -0.19674339 255 123 114
-0.23098165 -0.88459311 -0.19164845 255 123 114
-0.23341557 -0.88225244 -0.18655351 255 123 114
-0.23359558 -0.96584978 -0.17834059 255 123 114
-0.22838095 -0.96587748 -0.17850817 255 123 114
-0.22316632 -0.96590517 -0.17867575 255 123 114
-0.21795170 -0.96593286 -0.17884333 255 123 114
-0.21273707 -0.96596055 -0.17901091 255 123 114
-0.20752245 -0.96598825 -0.17917849 255 123 114
-0.20230782 -0.96601594 -0.17934607 255 123 114
-0.19709320 -0.96604363 -0.17951365 255 123 114
-0.19187857 -0.96607132 -0.17968123 255 123 114
-0.18666394 -0.96609901 -0.17984881 255 123 114
-0.18144932 -0.96612671 -0.18001639 255 123 114
-0.17623469 -0.96615440 -0.18018397 255 123 114
-0.17102007 -0.96618209 -0.18035155 255 123 114
-0.16580544 -0.96620978 -0.18051913 255 123 114
-0.16059081 -0.96623747 -0.18068671 255 123 114
-0.15537619 -0.96626517 -0.18085429 255 123 114
-0.15016156 -0.96629286 -0.18102187 255 123 114
-0.14494694 -0.96632055 -0.18118945 255 123 114
-0.13973231 -0.96634824 -0.18135703 255 123 114
-0.13451769 -0.96637593 -0.18152461 255 123 114
-0.12930306 -0.96640363 -0.18169219 255 123 114
-0.12408843 -0.96643132 -0.18185977 255 123 114
-0.11887381 -0.96645901 -0.18202735 255 123 114
-0.11365918 -0.96648670 -0.18219493 255 123 114
-0.11365918 -0.96648670 -0.18219493 255 123 114
-0.11365136 -0.96285204 -0.18255201 255 123 114
-0.11364353 -0.95921737 -0.18290910 255 123 114
-0.11363570 -0.95558270 -0.18326618 255 123 114
-0.11362788 -0.95194804 -0.18362326 255 123 114
-0.11362005 -0.94831337 -0.18398035 255 123 114
-0.11361222 -0.94467870 -0.18433743 255 123 114
-0.11360440 -0.94104403 -0.18469451 255 123 114
-0.11359657 -0.93740937 -0.18505160 255 123 114
-0.11358875 -0.93377470 -0.18540868 255 123 114
-0.11358092 -0.93014003 -0.18576576 255 123 114
-0.11357309 -0.92650537 -0.18612285 255 123 114
-0.11356527 -0.92287070 -0.18647993 255 123 114
-0.11355744 -0.91923603 -0.18683702 255 123 114
-0.11354961 -0.91560136 -0.18719410 255 123 114
-0.11354179 -0.91196670 -0.18755118 255 123 114
-0.11353396 -0.90833203 -0.18790827 255 123 114
-0.11352613 -0.90469736 -0.18826535 255 123 114
-0.11351831 -0.90106270 -0.18862243 255 123 114
-0.11351048 -0.89742803 -0.18897952 255 123 114
-0.11350265 -0.89379336 -0.18933660 255 123 114
-0.11349483 -0.89015870 -0.18969368 255 123 114
-0.11348700 -0.88652403 -0.19005077 255 123 114
-0.11347918 -0.88288936 -0.19040785 255 123 114
-0.11347918 -0.88288936 -0.19040785 255 123 114
-0.11869380 -0.88286167 -0.19024027 255 123 114
-0.12390843 -0.88283398 -0.19007269 255 123 114
-0.12912305 -0.88280629 -0.18990511 255 123 114
-0.13433768 -0.88277859 -0.18973753 255 123 114
-0.13955230 -0.88275090 -0.18956995 255 123 114
-0.14476693 -0.88272321 -0.18940237 255 123 114
-0.14998156 -0.88269552 -0.18923479 255 123 114
-0.15519618 -0.88266782 -0.18906721 255 123 114
-0.16041081 -0.88264013 -0.18889963 255 123 114
-0.16562543 -0.88261244 -0.18873205 255 123 114
-0.17084006 -0.88258475 -0.18856447 255 123 114
-0.17605469 -0.88255706 -0.18839689 255 123 114
-0.18126931 -0.88252936 -0.18822931 255 123 114
-0.18648394 -0.88250167 -0.18806173 255 123 114
-0.19169856 -0.88247398 -0.18789415 255 123 114
-0.19691319 -0.88244629 -0.18772657 255 123 114
-0.20212781 -0.88241860 -0.18755899 255 123 114
-0.20734244 -0.88239090 -0.18739141 255 123 114
-0.21255707 -0.88236321 -0.18722383 255 123 114
-0.21777169 -0.88233552 -0.18705625 255 123 114
-0.22298632 -0.88230783 -0.18688867 255 123 114
-0.22820094 -0.88228014 -0.18672109 255 123 114
-0.23341557 -0.88225244 -0.18655351 255 123 114
-0.23341557 -0.88225244 -0.18655351 255 123 114
-0.23342340 -0.88588711 -0.18619643 255 123 114
-0.23343122 -0.88952178 -0.18583935 255 123 114
-0.23343905 -0.89315644 -0.18548226 255 123 114
-0.23344687 -0.89679111 -0.18512518 255 123 114
-0.23345470 -0.90042578 -0.18476810 255 123 114
-0.23346253 -0.90406045 -0.18441101 255 123 114
-0.23347035 -0.90769511 -0.18405393 255 123 114
-0.23347818 -0.91132978 -0.18369685 255 123 114
-0.23348601 -0.91496445 -0.18333976 255 123 114
-0.23349383 -0.91859911 -0.18298268 255 123 114
-0.23350166 -0.92223378 -0.18262560 255 123 114
-0.23350949 -0.92586845 -0.18226851 255 123 114
-0.23351731 -0.92950311 -0.18191143 255 123 114
-0.23352514 -0.93313778 -0.18155435 255 123 114
-0.23353296 -0.93677245 -0.18119726 255 123 114
-0.23354079 -0.94040712 -0.18084018 255 123 114
-0.23354862 -0.94404178 -0.18048310 255 123 114
-0.23355644 -0.94767645 -0.18012601 255 123 114
-0.23356427 -0.95131112 -0.17976893 255 123 114
-0.23357210 -0.95494578 -0.17941185 255 123 114
-0.23357992 -0.95858045 -0.17905476 255 123 114
-0.23358775 -0.96221512 -0.17869768 255 123 114
-0.23359558 -0.96584978 -0.17834059 255 123 114
