ply
format ascii 1.0
element vertex 52
property float x
property float y
property float z
property uchar red
property uchar green
property uchar blue
end_header
-0.11971534 0.23483372 2.54679297 4 4 6
-0.08356006 0.48437671 2.56708614 113 97 88
-0.01602075 0.13091886 2.55023752 159 187 207
-0.03816999 0.51715756 2.56152416 75 54 47
0.33655167 0.32337085 3.13323941 157 175 190
0.02533914 0.18342069 2.55183267 179 192 197
-0.02974424 0.13935951 2.55155723 4 5 7
0.38999244 0.42685483 3.02118510 143 161 183
-0.03816999 0.51715756 2.56152416 75 54 47
0.35634467 0.38665023 3.03558428 158 111 40
-0.06511345 0.13284766 2.54129883 73 104 134
-0.01742607 0.13575322 2.54835523 6 12 19
0.46975360 0.41501942 3.01150983 55 125 148
-0.06235387 0.15991745 2.54908227 76 81 77
0.41687450 0.37361362 3.06629737 18 35 45
-0.01559559 0.47444384 2.60634490 123 102 96
-0.00139221 0.47499623 2.61382849 23 23 28
0.37185647 0.37214822 3.05719737 8 18 24
0.00375502 0.43824210 2.60511032 105 120 125
0.37185647 0.37214822 3.05719737 8 18 24
0.55103498 0.44727881 2.98428690 34 78 94
0.38857727 0.37787114 3.04804457 99 109 121
-0.05556003 0.19049673 2.51604803 112 125 132
0.01762602 0.49877944 2.62803524 106 123 132
-0.01286802 0.13485002 2.55027780 171 191 204
-0.05244277 0.18955056 2.50888318 120 135 143
0.40055823 0.36547825 3.07149543 152 165 182
0.38662654 0.38765182 3.03978196 11 15 17
0.38103192 0.40165406 3.02079642 0 2 6
0.00601816 0.46905694 2.60952198 121 137 149
0.34216457 -0.02878718 2.75508954 74 83 88
0.00776189 0.48278842 2.62300078 38 36 36
0.37380512 0.39723498 3.02258205 137 148 152
0.33485904 0.38271963 3.04217783 70 94 104
0.32185925 0.34080913 3.11185963 34 129 149
0.40413112 0.40311315 3.02342728 5 9 6
0.53745570 0.44775785 2.98252585 137 174 188
0.45879403 0.37709380 3.06857173 73 124 145
0.39971317 0.37240596 3.05951902 6 8 11
0.47467351 0.41064102 3.01425486 128 168 184
0.45879403 0.37709380 3.06857173 73 124 145
0.41152030 0.39364089 3.02303452 127 141 160
0.35099460 0.41623149 2.99291720 66 123 152
0.37693379 0.37320175 3.05530400 1 7 10
0.34458751 0.38267362 3.04662591 4 27 20
0.37140178 0.37689718 3.05380057 142 147 149
0.33485904 0.38271963 3.04217783 70 94 104
0.39591089 0.39154414 3.03587411 0 4 11
0.26080516 -0.15675552 2.68483187 35 39 39
0.40350062 0.39235937 3.03125674 147 160 174
0.45794095 0.41399318 3.00756251 51 119 145
0.46506252 0.39294527 3.04529726 121 165 178
