ply
format ascii 1.0
element vertex 214
property float x
property float y
property float z
property uchar red
property uchar green
property uchar blue
end_header
0.01182493 0.72450570 5.07545801 174 168 156
-0.13943205 0.19982230 4.98267522 98 112 121
-0.63134828 0.00069894 5.08543218 117 134 146
-0.26797763 0.72556825 5.07448259 184 172 150
-0.49038554 0.71848642 5.11843088 103 120 130
-0.14051365 0.46084693 5.02693939 152 144 127
-0.04235650 0.55298076 5.04831213 122 139 149
-0.35497977 0.84463796 5.09852212 82 92 98
0.04961820 -0.53819241 4.83262642 62 80 92
-0.28247077 0.86126621 5.09215807 82 91 97
-0.05697761 0.50215906 5.02882567 90 103 111
-0.25925767 0.05017932 4.97227870 177 166 146
-0.10276747 0.45930986 5.02880401 162 153 136
0.00127525 -0.52211040 4.83445607 159 160 151
-0.25129471 0.44806053 5.03123823 193 185 165
-0.24969090 0.16973162 4.99232998 158 147 127
-0.54883266 0.28087442 5.09154039 114 132 142
0.16032028 0.25846846 5.03913273 15 19 22
-0.52379271 -0.53799124 4.92687626 75 77 72
0.11955627 0.20428035 5.00386489 73 102 118
-0.15969705 0.33690116 5.00985125 162 153 137
-0.23263924 0.19026296 4.99643021 93 106 110
-0.52714309 -0.39374455 4.96827501 56 69 75
-0.39060916 0.73314718 5.09254382 104 117 125
0.05577608 0.38078817 5.03263901 198 202 191
-0.40481367 -0.52309138 4.88343487 166 154 138
-0.26983155 -0.09154159 4.95199867 113 128 135
-0.16901267 -0.11179368 4.93789916 118 110 87
-0.20648492 0.34036966 5.01038466 165 154 134
-0.47664027 0.58431721 5.08429333 204 196 175
0.19796698 -0.11301576 4.95065429 171 183 182
0.14096284 -0.23831529 4.91315696 148 160 160
0.04934127 1.12570133 4.65248849 154 136 114
-0.06627077 -0.24840656 4.89972276 39 48 54
-0.40096778 0.22834616 5.04358393 245 224 207
0.14949430 0.16961362 5.00179081 141 152 152
-0.14786426 -0.51871022 4.84497320 133 120 104
-0.13865221 -0.08365116 4.94358559 82 95 101
0.16032028 0.25846846 5.03913273 15 19 22
-0.70002082 -0.01496306 5.12006229 125 144 154
0.21503734 -0.23484309 4.92584260 198 210 210
-0.46591498 0.43914056 5.08669415 93 108 115
-0.28042259 -0.23752306 4.92562436 188 180 161
-0.63799736 -0.40091417 5.01248888 98 123 136
0.32276285 -0.52385547 4.89442608 144 165 170
-0.08219127 0.17794445 4.97874190 160 156 140
-0.31457854 0.85510633 5.09567586 84 93 98
0.09871440 0.45048452 5.04752958 85 113 131
-0.06624446 0.53148461 5.04295707 44 52 54
-0.11156162 -0.11591017 4.93172445 162 154 135
-0.07703923 0.05362854 4.96262630 188 181 165
0.17077980 1.27862486 4.60928340 128 120 109
-0.31241665 0.37592078 5.03308369 187 175 151
0.05009447 0.16684451 4.99097026 144 144 138
0.21782668 0.17866543 5.02728528 34 53 64
-0.26263624 0.02139687 4.96953520 49 60 66
-0.33401001 0.98841017 5.12576327 124 93 72
-0.24083553 0.46156931 5.03324273 33 37 38
-0.44734602 0.43238152 5.07567811 103 116 118
-0.33680581 0.33294995 5.03955959 190 180 153
-0.40813468 -0.24275311 4.95696401 188 182 164
-0.07100301 0.45990111 5.02373650 170 163 148
-0.50808846 -0.26379248 4.98118377 86 101 109
-0.60369162 -0.13692910 5.04033533 182 179 161
0.10048194 0.26623773 5.02945196 1 18 26
-0.60734744 -0.26438739 5.02054778 110 123 125
-0.40670654 0.25151616 5.04403058 87 83 76
-0.48344337 -0.26565927 4.97490382 90 107 115
0.22128785 0.56558988 5.08281932 99 129 149
-0.34941735 0.24992046 5.03590356 11 21 23
-0.20693364 -0.08650132 4.94893688 88 101 109
0.04641072 1.36037225 4.64285637 176 168 158
-0.56412964 0.42973121 5.11465716 101 116 126
-0.42208241 -0.25916425 4.95814795 120 137 147
0.21193064 1.30606547 4.61023104 124 120 111
-0.31291880 -0.09393982 4.96116051 64 78 87
-0.62078450 0.00681163 5.07689209 120 134 138
0.04641072 1.36037225 4.64285637 176 168 158
0.19538671 1.26996401 4.61007286 171 169 157
-0.10986522 0.02574119 4.95548764 62 73 79
-0.60844411 -0.40137792 4.99532192 103 121 125
-0.53833953 0.16447723 5.06247228 91 104 111
0.14240841 1.12717855 4.64431517 183 171 149
-0.41970897 0.43516962 5.06481513 97 108 109
-0.24089905 0.50448029 5.04252995 11 24 28
-0.24945855 0.16783336 5.00462381 178 167 147
-0.33565226 0.33415142 5.03175658 225 215 188
-0.10552778 -0.24731391 4.89998343 54 64 66
-0.17099620 0.53377111 5.03889782 100 114 123
-0.61621746 -0.25195307 5.02671855 193 190 171
-0.30721651 -0.11420912 4.95478689 177 166 144
0.18134868 0.17657853 5.01415170 77 95 103
-0.57878491 -0.11406064 5.04354847 86 103 113
0.27921900 0.27849397 5.07666443 100 132 153
-0.46870155 0.31779717 5.06331080 210 201 172
-0.75258974 1.16875938 4.64023090 221 211 186
-0.34920053 0.30868477 5.03911130 168 156 135
-0.78451946 1.22747332 4.66681539 191 182 167
0.07278091 -0.39550427 4.86951418 186 197 194
-0.49376419 -0.12250240 5.00484935 191 187 169
-0.39531042 0.71763883 5.09019078 187 183 165
-0.36584839 0.85384010 5.10403873 103 105 101
-0.15496466 1.31715851 4.68376187 197 188 173
-0.02303548 0.85284282 5.09083228 75 83 91
-0.44765780 0.16118030 5.03568800 159 153 138
-0.11233784 0.17985419 4.98000930 184 179 163
0.42199503 -0.55219685 4.93127181 106 150 175
0.06978328 -0.43042160 4.86171290 104 105 98
-0.36226287 0.44616262 5.05486374 89 103 108
-0.42083913 0.84484510 5.11644742 117 119 113
0.06183524 1.35719241 4.64273052 152 143 134
-0.04633163 0.50526642 5.03424380 15 25 28
0.26113131 -0.39185943 4.91411334 95 133 155
-0.23504525 0.48216351 5.03414628 17 22 25
0.27015445 1.32793713 4.61935989 190 195 191
0.11657069 0.72570130 5.07715113 86 106 117
0.26980468 0.35482336 5.08387473 166 183 185
0.05939274 0.18355616 4.99096935 63 81 91
-0.47925881 -0.66562099 4.85598241 105 119 122
-0.46276028 0.83966042 5.12662659 103 110 110
0.27415977 1.31427864 4.62495902 145 147 142
-0.74087467 1.16081246 4.64091784 178 165 139
0.17025903 1.33958160 4.61629184 145 142 135
-0.56485820 0.16252138 5.07246993 94 108 115
-0.28796160 1.42001731 4.77375759 174 152 131
-0.31241665 0.37592078 5.03308369 187 175 151
0.19958818 1.27974958 4.61087813 198 196 185
0.18152603 0.23257919 5.03539519 231 254 254
-0.40639174 0.84730068 5.11357223 99 103 99
-0.05606051 1.24374249 4.64788868 129 119 107
0.06978328 -0.43042160 4.86171290 104 105 98
-0.05098956 1.25398288 4.64674058 181 173 160
-0.35538126 1.44480899 4.73499485 153 141 129
0.26016505 0.56311982 5.09192029 112 138 152
0.05984821 1.29829724 4.62752481 166 160 148
-0.52805647 0.82986282 5.14436503 103 111 113
0.10233016 0.25491633 5.02351510 6 22 27
-0.49346389 0.70353182 5.11608248 201 196 179
-0.14156749 1.31579811 4.67801333 185 176 161
-0.01204480 1.41330914 4.66826252 163 154 145
-0.13976508 0.45707062 5.03883372 176 165 147
0.29360226 1.34503147 4.62998457 190 198 200
-0.05724106 1.41706853 4.67906056 171 162 154
-0.05724106 1.41706853 4.67906056 171 162 154
0.02683802 0.84524383 5.09768992 63 73 81
0.32797063 -0.32282748 4.94875192 134 178 203
0.32776487 0.15300570 5.05041423 157 184 193
0.11927455 1.19207781 4.62565542 223 221 206
-0.54597547 -0.39722964 4.97050928 75 88 91
0.09050129 0.25894536 5.02586727 84 125 152
-0.57797166 -0.39009569 4.98451576 78 97 107
-0.06333663 0.52362155 5.03100473 22 31 33
0.26160906 0.23277376 5.05295510 115 151 175
-0.02230411 1.44027805 4.67462379 159 152 143
-0.33551646 0.28225475 5.03258896 102 126 136
-0.83583619 1.11504362 4.67789068 188 174 148
-0.72749502 1.27509923 4.64872778 123 111 97
-0.49036640 0.83568519 5.13209648 99 107 108
0.00363881 0.60523177 5.04742666 188 187 179
-0.24461374 0.59584877 5.06140056 81 95 104
0.31165310 1.35166443 4.63796888 187 200 201
0.66539976 -0.59092529 5.21729361 224 225 211
0.01997092 1.33546511 4.64475296 154 145 136
-0.57307090 0.01284481 5.05632963 113 130 137
-0.02230411 1.44027805 4.67462379 159 152 143
-0.41092902 0.23567550 5.05803388 23 29 28
-0.01263596 0.48970537 5.03508004 17 26 30
0.32797063 -0.32282748 4.94875192 134 178 203
-0.17224608 1.30214727 4.69182290 209 201 182
-0.74982962 1.17992858 4.64251300 165 152 133
-0.10552778 -0.24731391 4.89998343 54 64 66
1.10901714 -0.18280374 5.19648308 177 174 165
-0.42298259 0.23190497 5.04785523 184 206 204
-0.01263596 0.48970537 5.03508004 17 26 30
0.04759727 1.41001846 4.65308917 153 144 136
-0.10638196 1.27471801 4.66948525 129 117 103
0.18639375 1.29159576 4.60697556 196 192 182
0.37120894 0.15927630 5.07314665 121 158 183
0.28218307 1.21944060 4.63632216 166 159 141
-0.42298259 0.23190497 5.04785523 184 206 204
-0.14156749 1.31579811 4.67801333 185 176 161
-0.35385034 0.99957202 5.11396860 113 78 52
0.37120894 0.15927630 5.07314665 121 158 183
0.25128559 1.32372132 4.61542589 125 127 124
-0.19416868 1.20753904 4.68781465 166 148 124
-0.86914793 1.15655271 4.69077472 202 194 176
-0.14551448 1.35167159 4.68359467 175 165 155
0.68570057 -0.38692722 5.24989804 107 112 108
0.09835732 1.39702262 4.64247380 150 145 138
0.21675715 1.16622422 4.64195308 194 186 163
0.23250628 1.31525825 4.60831543 207 212 203
0.28305606 1.33432032 4.62806818 138 143 142
0.16264638 1.30302114 4.61141050 156 147 138
1.10901714 -0.18280374 5.19648308 177 174 165
-0.53922788 -0.33556762 4.99806273 143 161 171
0.18942185 -0.10219071 4.95267780 59 85 101
0.12229990 -0.65872673 4.80540968 67 94 113
0.38273552 1.43886088 4.72818893 117 117 109
-0.40670654 0.25151616 5.04403058 87 83 76
-0.28037680 1.25332077 4.77997439 204 203 184
0.59434406 -0.35925741 5.18063789 135 179 206
-0.46841376 0.31947076 5.04927861 205 195 168
0.66002650 -0.63658054 5.17390336 153 139 126
0.82897013 0.19689083 5.28598515 207 194 175
0.10005196 1.35884172 4.63313679 144 137 129
0.28218307 1.21944060 4.63632216 166 159 141
-0.07088684 -0.63738613 4.79361987 43 61 71
-0.40096778 0.22834616 5.04358393 245 224 207
-0.61143906 1.27915346 4.61950925 188 175 161
-0.32756823 1.42718653 4.81340653 71 69 65
-0.32756823 1.42718653 4.81340653 71 69 65
-0.87886828 1.33884271 4.73965530 203 195 182
0.63467284 0.16947901 5.37249696 105 97 87
-0.59352811 0.93481139 4.93220530 204 213 212
