ply
format ascii 1.0
element vertex 1055
property float x
property float y
property float z
property uchar red
property uchar green
property uchar blue
end_header
-0.10544120 1.23112935 5.44618604 100 113 121
0.52425891 1.58621840 4.87596822 177 160 133
-0.08344104 -0.37126957 4.89199462 49 62 71
0.27959450 0.75460767 5.45973353 18 26 29
0.22240228 -0.19213253 5.16410320 63 65 71
0.05284262 -0.41438352 4.93936716 50 60 69
0.31894008 0.05987205 5.32932297 171 159 145
0.02672835 -0.39989863 4.93318735 43 50 58
1.18415241 1.19154043 5.32678346 186 165 139
-0.19479588 -0.24087447 4.94331504 54 58 64
0.36649793 -0.09767920 5.31589719 80 83 81
-0.05253985 -0.35813403 4.90976754 49 58 67
0.16066163 -0.14495536 5.14246198 36 46 58
-0.30260734 -0.36916466 4.86274804 82 96 103
0.18214599 -0.44697202 5.01429928 42 53 59
0.08908456 -0.31541070 5.02663489 45 48 53
-0.03592616 -0.11008493 5.07332863 32 45 58
0.06222037 -0.39681941 4.95081649 43 50 56
-0.44656009 0.40862824 5.17144829 89 103 112
0.18933922 -0.45744494 5.01633470 39 48 56
0.19595591 -0.49657228 5.01844187 213 216 210
0.29000882 1.33731327 5.57671030 131 109 95
0.06947271 -0.42061392 4.94685269 50 59 69
-0.16147588 -0.36970472 4.86916657 54 70 84
0.17367196 -0.45054864 5.00934033 57 67 77
0.01906047 -0.43355449 4.91775094 196 190 175
-0.38188834 0.25867984 5.11353185 104 120 125
-0.55044543 -0.11598018 4.99689318 198 194 182
-0.11793507 -0.32624242 4.90049683 48 56 67
0.66498480 1.24118449 5.46212398 141 108 89
0.14251266 -0.43909690 4.99002799 50 60 70
-0.55044543 -0.11598018 4.99689318 198 194 182
0.22767186 -0.50237613 5.04111552 92 106 112
0.51496511 0.35705732 5.63917739 18 23 26
0.47861206 0.37362433 5.57814877 131 156 175
0.13442486 -0.03079600 5.17114218 35 43 53
0.55522837 0.34807439 5.76589495 179 192 200
-0.31292734 0.18999164 5.08631269 203 198 179
0.27843293 1.31570485 5.56915914 135 107 91
0.34843168 0.31263097 5.42065429 195 185 173
0.42697764 1.08936873 5.68848162 147 133 122
0.17367196 -0.45054864 5.00934033 57 67 77
0.55088293 0.27135847 5.71670648 127 155 176
1.09981274 1.79338243 5.42381187 56 57 52
-0.15704866 0.09354460 5.08112814 191 183 168
-0.15704866 0.09354460 5.08112814 191 183 168
0.60037019 0.68723315 5.85247489 191 197 197
1.37263058 1.30525558 5.38838902 206 203 194
-0.65708299 0.38702571 5.22755212 95 117 130
-0.05600374 0.18618886 5.14975275 181 176 157
0.18223943 0.65840544 5.38468960 179 166 144
0.11134252 -0.31709258 5.04760238 43 47 52
-0.50860127 0.10256172 5.06591853 56 82 97
0.60063018 0.96041720 5.80769441 165 170 164
-0.87961073 -0.21627590 5.12350284 214 215 201
-0.63232346 -0.03653340 5.05337980 92 118 133
2.40825747 -1.87460357 10.85740242 63 60 57
-0.64107323 -0.35904716 4.92565610 189 194 180
0.10170996 -0.46351652 4.97158372 198 196 187
-0.26028641 -0.37316951 4.86940118 82 95 100
-0.67969635 -0.89996543 6.18422242 241 233 214
-0.55652870 0.23743505 5.13639096 166 167 153
0.32063745 0.76331070 5.46381730 49 57 62
0.32063745 0.76331070 5.46381730 49 57 62
0.45463187 -0.00040506 5.43732795 151 152 150
-0.24096149 -0.54318037 5.18991884 167 120 64
-0.39278676 0.27668894 5.13221605 79 98 115
-0.27583043 0.06368460 5.05587123 130 149 163
0.44404430 -0.60582884 5.27029739 97 120 142
-0.58681886 0.27493729 5.16616452 112 133 148
-1.12273956 -0.79844911 5.99840387 129 120 111
-0.31682898 0.39097782 5.17993375 86 105 119
-0.41455062 0.12053024 5.06617227 197 195 182
-0.26601400 -0.38473360 4.86160155 194 194 170
0.20108633 -0.02640757 5.19429754 132 127 116
-0.93072212 -0.39199797 5.09461154 193 191 176
0.17413906 -0.04417867 5.17536418 69 79 86
0.05936709 -0.45055102 4.94444366 192 189 171
0.22530741 -0.50360605 5.04796154 78 91 97
-0.93462518 -0.15245130 5.22200016 192 193 179
-0.60378260 -0.35935737 4.91124167 220 226 211
-0.01491877 -0.41934211 4.91298218 46 58 62
-0.05309798 0.63792005 5.29440723 89 104 112
0.09821156 0.00661535 5.16310399 181 176 164
-0.24830423 -0.50910277 5.17657632 195 150 95
0.13780024 -0.64777402 5.40229137 187 142 83
-0.24849001 -0.50875626 5.17730022 195 150 95
0.44889473 0.25260061 5.50281529 138 135 128
0.42125566 -0.11692341 5.37960803 164 169 165
0.43883369 0.35726456 5.49170897 93 109 122
0.93592038 1.77187469 5.32904446 63 60 55
-0.24830423 -0.50910277 5.17657632 195 150 95
-0.07686541 -0.51232918 5.19586298 158 109 50
0.24824095 0.32224329 5.08781095 147 136 116
-0.29422858 -0.47324889 5.16261454 152 102 43
0.14807235 -0.23909356 4.95528963 125 115 100
0.20121111 -0.17993815 5.15712635 85 96 102
-0.07034315 -0.40565293 4.89334805 73 85 90
-0.12092183 -0.38467933 4.88411140 87 100 108
-0.58771889 -0.05585221 5.03275671 164 166 152
0.05020503 0.02073207 5.13844140 163 157 143
-0.27602955 -0.07999102 5.00196543 185 184 171
-0.27006109 -0.06933743 5.00735721 46 61 71
0.04689689 -0.11164235 5.10507317 51 67 80
0.04689689 -0.11164235 5.10507317 51 67 80
-0.06899081 -0.12274255 5.06216903 127 123 116
-0.25995305 -0.06376032 5.01383419 45 62 72
0.22281566 -0.19228463 5.16043393 53 59 66
-0.55099062 -0.20039013 4.96291757 173 180 173
-0.12335784 -0.36498567 4.89060109 62 75 84
-0.25778428 -0.34564721 4.87362149 66 83 93
-0.29090884 -0.34960636 4.86995935 71 88 99
-0.14369600 -0.36157243 4.88798658 62 75 84
-0.42747048 -0.32585770 4.88338617 70 89 103
-0.29090884 -0.34960636 4.86995935 71 88 99
-0.14560321 0.08641313 5.08577839 125 116 101
-0.18006357 -0.34165058 4.88786391 58 72 81
-0.42922081 -0.33987406 4.87855020 66 84 94
-0.09693191 0.20060781 5.14556799 176 169 150
0.12333040 -0.16495062 5.12364273 52 60 70
-0.35233214 -0.35614319 4.87922147 73 95 107
-0.06898378 -0.12141166 5.06666092 141 130 121
-0.10816187 -0.00087131 5.08136428 52 66 75
-0.10816187 -0.00087131 5.08136428 52 66 75
-0.16517737 -0.02748026 5.05815903 68 82 91
-0.29611825 -0.35469269 4.87772998 211 228 230
0.30774829 -0.13930226 5.25303108 56 65 74
-0.82282370 -0.04537490 5.15727920 111 134 150
0.08654641 0.14709583 5.18898615 152 140 124
0.10445780 0.16539304 5.20170006 75 84 94
-0.16955237 -0.39428893 4.87647680 179 170 147
0.15173883 -0.18673367 5.13699244 191 179 165
0.09974550 0.00649277 5.15647841 160 152 139
-0.23911930 -0.34705855 4.88085118 66 83 98
-0.12267837 -0.36431443 4.89473943 47 59 69
0.07610360 0.30625089 5.21841650 47 60 66
-0.51147744 0.40610004 5.20657713 99 118 129
-0.21448412 0.05908899 5.06448201 45 61 74
-0.54011598 0.40441804 5.20597857 104 123 134
-0.22021181 -0.06926598 5.02175045 53 69 78
-0.39457329 0.26613157 5.11789191 88 106 120
-0.54596309 1.27833639 5.62744504 175 173 161
-0.81159098 -0.52619105 5.41664275 175 132 77
-0.09886704 -0.52676429 5.19698318 165 116 57
-0.15711168 -0.08880853 5.02323080 49 59 65
-0.35017617 0.05959196 4.54318607 112 132 141
-0.39796782 0.08692034 4.56785875 160 186 201
-0.33692183 -0.29861548 4.89074669 50 69 83
-0.53254648 0.13415013 5.10023666 186 189 176
-0.29801848 -1.00760208 6.30268464 127 133 129
-0.04943234 0.35333343 5.18419464 171 164 147
0.09576702 0.32110798 5.22527116 164 152 136
-0.47470543 0.12523075 5.07541015 192 193 180
-0.08171004 0.36706676 5.18202105 176 168 149
0.01960991 0.33750736 5.20089148 173 166 148
-0.63577302 0.11029226 5.13951546 100 121 134
-0.25984291 0.10474753 5.05561049 162 157 138
0.13834045 0.28497806 5.23363304 69 78 83
0.23713488 -0.51845971 5.07512046 218 215 200
-0.60429337 0.12261578 5.12900041 173 178 170
-0.56229162 -0.03635561 5.05101272 94 115 125
-0.02238811 0.03838462 5.11217681 158 152 135
-0.35661376 1.38054722 5.58528150 73 79 77
-0.92382744 -0.36225028 5.11756051 99 118 127
0.18252343 -0.33458267 5.07689769 128 118 106
-0.28294504 1.39431433 5.56774725 71 77 75
-0.06184961 0.20931722 5.14697576 79 90 95
0.17854615 0.13354616 5.22804765 65 68 66
0.27637552 0.08053674 5.27972678 156 144 130
-0.22963567 0.53319380 5.22226123 173 167 151
-0.75513144 -0.94902893 6.23165063 130 131 129
0.03375608 0.55551896 5.31886247 184 201 197
-0.04593880 0.81024552 5.32280864 87 100 108
-0.41220086 0.26212803 5.13702185 175 177 167
0.25992933 0.22736273 5.28512817 60 69 73
-0.61195331 0.11646886 5.13342273 106 124 133
-0.25498916 -0.37714137 4.87541365 183 190 180
-0.20073594 -0.64635284 5.31632475 156 116 57
0.00532572 0.17263826 5.15751215 167 160 146
-0.51199072 -0.47867670 5.16988284 209 164 107
0.39414218 -0.59133279 5.20282655 180 189 188
-0.75717882 -0.77588446 6.17162865 166 131 93
-0.22293507 -0.46327141 5.15233123 193 150 95
0.05853495 1.55003019 5.08643434 206 212 200
-0.11292990 -0.56190436 5.22640923 147 99 41
-0.20087277 -0.55102729 5.20420506 184 139 82
-0.23197304 -0.57961144 5.23352656 156 111 54
-0.27463035 -0.47956916 5.16518179 191 146 89
-0.19388580 -0.54246297 5.22017836 138 90 32
0.04267098 -0.87831006 6.05685933 178 157 128
-0.13598249 -0.54057799 5.21701269 135 89 30
-0.20073594 -0.64635284 5.31632475 156 116 57
0.21725676 -0.47007758 5.03923954 57 70 79
0.15613766 -0.56345316 5.30655091 171 129 71
-0.20648811 -0.47252645 5.15995583 185 140 84
-0.11505750 -0.38714114 4.88828701 49 62 70
-0.30420113 -0.46515035 5.16042241 142 92 36
-0.05410387 -0.45953365 5.16689559 138 93 36
-0.20648811 -0.47252645 5.15995583 185 140 84
-0.26191839 -0.45067421 5.13196039 139 92 38
0.07092922 -0.52677548 5.23393742 152 106 48
-0.20648811 -0.47252645 5.15995583 185 140 84
-0.11806708 -0.50527827 5.18354977 190 145 88
0.67468902 1.40580814 5.29447330 187 188 172
-0.50461710 -0.48153925 5.17602269 173 128 69
-0.06859768 -0.49616517 5.17847803 193 151 96
0.15613766 -0.56345316 5.30655091 171 129 71
-0.43854376 -0.51777741 5.20240555 162 117 57
-0.02481675 -0.50900308 5.20199362 195 152 94
-1.03491663 -0.65882122 5.86031031 184 156 129
-0.21995592 -0.51308738 5.17396516 187 142 85
-0.02695032 -0.51732645 5.21206004 157 115 56
0.14792494 -0.54621477 5.28403104 171 129 71
-0.26138902 -0.51020028 5.18325510 146 100 44
-0.33531722 -0.46495830 5.15047694 186 139 85
-0.25979832 -0.49362931 5.17391584 187 142 87
0.14792494 -0.54621477 5.28403104 171 129 71
0.57138323 1.37068059 5.35554834 85 91 88
-0.26629350 -0.45237456 5.15067535 185 138 82
-0.22706983 -0.52386072 5.18161407 197 152 95
-0.27036959 -0.53168923 5.20887721 148 103 46
-0.31276292 -0.47706169 5.15236770 193 148 92
-0.35651190 -0.59389155 5.26114118 206 161 102
-0.01999582 -0.48759227 5.18355818 150 104 45
-0.27036959 -0.53168923 5.20887721 148 103 46
0.02354541 -0.51459763 5.22292907 201 156 99
-0.05573879 -0.45354629 5.14946667 197 155 101
-0.37076280 -0.45835079 5.15217873 152 104 48
0.01142375 -0.62110330 5.30823969 214 174 116
-0.30420113 -0.46515035 5.16042241 142 92 36
0.62941204 1.43407507 5.28462069 86 88 83
-0.47380798 -0.47702664 5.17081790 204 159 100
-0.33531722 -0.46495830 5.15047694 186 139 85
-0.26138902 -0.51020028 5.18325510 146 100 44
-0.43802312 -1.31125791 11.49308379 114 102 90
-0.37057108 -0.46893928 5.14326297 200 153 97
-0.00219127 -0.51325115 5.20483703 209 164 105
-0.03860966 -0.46596217 5.17069337 213 168 111
-0.31229895 -0.53476494 5.19514257 192 147 90
-0.03102519 -0.49288286 5.17927502 189 144 87
0.07423042 0.30881803 5.22905119 47 57 64
-0.19889572 0.23751784 5.12979949 40 53 64
-0.06399852 -0.41300635 4.89640385 173 167 147
2.40942799 -1.88190107 10.87880168 63 60 57
0.00854373 -0.42899433 4.85038707 186 180 164
0.00469440 1.56145114 5.00669753 139 144 140
0.61553772 1.41270645 5.49207809 95 78 62
0.05902551 0.33475480 5.23740876 187 177 158
-0.45781043 -0.06170539 5.01528576 206 205 187
0.10225717 0.00513892 5.16824255 151 143 127
-0.67747472 0.10124814 5.14429299 78 103 117
0.46502112 0.64599296 5.53623258 110 128 143
0.43824214 1.22529911 5.43232599 80 100 107
-0.41366542 0.68710411 5.30035763 106 124 136
-0.44427723 0.42515300 5.19387861 173 173 162
-0.15700214 -0.25604348 4.96279598 79 88 94
-0.22438233 -0.42598019 5.44469050 242 236 217
-0.28948757 -0.46118639 5.14042958 208 159 101
-0.01036195 1.58708715 5.05256382 129 135 131
0.18583206 -0.49602825 5.04314934 163 159 140
-0.55677690 -0.03532424 5.03609050 98 120 132
-0.33403839 0.69791148 5.33454153 96 113 123
0.05941331 0.33597904 5.22916175 172 163 146
0.22943404 0.11118455 5.27148803 157 149 135
0.11157113 -0.16920901 5.13614537 148 147 136
-0.00223882 -0.42639599 4.93726819 185 181 164
0.60970505 1.11797991 6.05330208 99 83 72
0.75918599 1.30604267 5.82392163 149 114 95
0.50732385 0.50608179 5.68687581 187 193 189
-0.30113568 1.14778874 5.46540719 96 113 123
-0.82128761 -0.05048004 5.14955418 74 99 115
0.13568416 0.13577556 5.21813084 207 195 179
-0.72563357 -0.06137026 5.10069626 181 183 167
-0.16788583 1.25146434 5.47390940 102 116 125
-0.36262018 0.89660081 5.71889285 192 187 175
-0.55734523 0.84293318 5.42864502 108 124 131
-0.55342338 -0.46368959 6.20746507 186 189 178
-0.16143542 -0.38925141 4.87421261 194 190 169
-0.70437066 0.79593886 5.52202891 196 196 186
-0.02209638 0.33771420 5.21874724 86 99 107
-0.76709261 -0.22384905 5.03073858 86 113 130
-0.22005834 0.84045722 5.34174761 93 110 118
-0.40314350 0.98598977 5.43719711 90 104 112
0.14297848 1.37419572 5.51903707 115 80 56
-0.30571512 0.92064328 5.90345003 171 176 169
-0.27836361 0.93779657 6.02320091 106 118 123
-0.15279011 0.66523972 5.28569525 86 102 112
-0.81133774 -0.37441617 4.99820747 201 200 180
-0.18537960 0.67760343 5.33602588 103 120 130
0.42899615 0.68087726 5.55071625 95 104 111
0.41579020 0.72037290 5.55155771 103 114 122
-0.12803407 -0.51185253 5.17005797 158 107 49
0.00275152 1.57988930 5.08596767 137 143 139
-0.36658783 0.41247060 5.18459022 189 190 174
-0.41653250 0.11792791 5.06102518 184 184 171
-0.79685952 -0.20192051 5.07337286 200 203 191
-0.52633722 0.12698139 5.10117599 177 174 161
-0.04329598 0.36290203 5.19617811 179 169 144
-0.86998951 0.36313574 5.34070390 87 105 117
-0.02139197 1.11178467 5.42067775 96 107 111
-0.63609748 0.27063750 5.16962835 97 117 128
-0.44869060 0.27248869 5.14663843 114 131 141
0.16030768 0.30230517 5.25856754 168 157 137
-0.10439097 0.36721473 5.18831265 177 169 151
0.06080840 -0.44247820 4.95532076 202 196 181
-0.74429947 -0.36398207 4.99810298 199 202 183
-0.87202112 -0.21144831 5.16238065 185 182 167
-0.11230389 0.05701368 5.09198804 170 163 146
-0.36574584 1.39305443 5.61159904 79 81 76
0.29864895 0.48659425 5.42994556 84 91 93
0.29083833 0.48258065 5.41335750 84 91 93
0.31289857 -0.11693701 5.33533029 75 80 84
-1.26715508 -0.49220136 5.37450489 106 116 118
-0.02251636 1.50728087 5.55446968 46 56 57
0.39543206 0.63413930 5.47559023 162 155 141
0.40165019 -0.39229558 5.26689933 157 160 159
0.73233100 2.59064593 5.45127470 127 128 120
1.03652924 1.34331916 5.01082970 147 136 118
0.93096202 2.38839034 5.31030629 202 239 246
-0.72375990 -0.35546524 5.04575556 100 123 137
-0.20907651 0.61041637 5.32518090 48 65 75
0.02720477 -0.29133523 5.01538184 67 67 65
-0.79031338 0.24936876 5.26728551 94 110 115
-0.40342009 -0.21016695 4.94156696 77 88 96
-0.01450129 1.10996334 5.44765936 81 98 108
-0.67902139 0.53653102 5.34842866 184 186 175
-0.69390040 -0.35435410 4.94253063 203 206 197
-0.47415982 -0.35773745 4.87825473 208 210 198
-0.02224092 0.03885451 5.11505860 165 157 139
-0.46870072 0.26142398 5.14637647 216 221 211
-0.32281660 1.28966000 5.92456295 91 106 112
-0.46870072 0.26142398 5.14637647 216 221 211
-0.53331790 -0.32037134 4.89854030 56 81 95
0.05913465 0.33274213 5.22637174 190 179 162
-0.64782802 0.81427342 6.05874021 182 186 182
0.06177050 -0.44756600 4.94764479 200 194 178
-0.02628577 0.33596242 5.20146061 102 116 123
-0.02733021 -0.42191456 4.90421305 212 205 183
-0.83382264 0.37619435 5.36400600 91 109 119
-0.19362145 0.52362184 5.21898418 170 162 143
0.06610909 0.01413161 5.14133082 160 151 134
-0.08312649 0.36452525 5.19037388 180 169 149
0.14137943 0.55643048 5.32868458 85 98 104
-1.02714255 -0.37709892 5.21748836 84 102 113
-0.09763469 0.05456560 5.09581347 199 190 172
0.16002363 0.58258747 5.33193638 90 98 99
0.06287510 1.08659097 5.43242900 99 110 116
-0.69855662 -0.34143225 4.98031312 111 131 146
-0.31152760 1.00954057 5.42184212 184 179 160
-0.57684803 1.24777768 5.71887322 94 112 122
-0.45266935 1.15513023 5.58427423 86 104 114
-0.45320089 0.98363727 5.48939317 103 122 129
-0.03684516 0.81665839 5.37379674 89 102 110
-0.20590460 1.14823897 5.44996675 98 111 118
-0.69041245 0.09116823 5.20021130 66 89 103
-1.15642822 -0.17838133 5.63500493 91 109 116
-1.09496130 0.12140953 5.67987481 173 173 160
-1.16102229 -0.19481041 5.63319707 178 180 163
0.01572868 1.09206824 5.46187147 192 181 161
-0.92230662 -0.38766444 5.12893375 191 188 171
0.58736102 2.01947393 5.20797393 132 128 119
-0.90252241 -0.86332288 6.17053724 130 112 100
-1.09069312 0.25195109 5.78323966 100 114 123
-1.11930658 -0.29786687 5.48680943 179 182 170
0.12255416 -0.30734395 5.02397276 149 137 124
-0.07452319 0.34725526 5.19562822 71 79 85
0.08927495 0.31910683 5.22414018 178 165 148
0.16052138 -0.02685676 5.14178165 76 80 85
-0.94609403 0.06104525 5.37287918 105 127 140
0.07956822 -0.29013796 5.01436546 153 137 122
-0.27517801 1.26202343 5.54218458 91 105 114
0.52931769 1.53711784 4.71042415 215 204 176
8.28484598 -6.05381381 15.94574695 90 112 136
0.44451686 0.63758506 5.53848713 24 37 39
-0.80810236 0.38488940 5.40534794 87 103 111
-0.14376080 0.37530615 5.18212637 217 205 184
-0.60589932 1.13527674 5.65627849 84 102 112
0.14343603 2.06063065 5.12898793 47 54 54
0.32980262 0.23854538 5.34696927 175 163 151
-0.03988345 1.84016269 5.00216659 77 89 89
-0.26465793 1.41723127 5.67268517 66 70 69
-0.90706373 -0.37670836 5.10503320 201 206 195
-0.75701721 -0.35923236 4.99288188 212 212 200
-0.01522768 0.59955621 5.30315889 19 24 28
0.31024295 0.79282835 5.47108151 105 113 116
-1.20093348 -0.47461654 5.50642241 100 111 114
0.19111336 1.36612518 5.51857362 132 94 67
-1.17419077 -0.34469290 5.57244210 90 107 115
-0.04764430 1.37585973 5.62639380 147 137 121
-0.84361668 0.24519804 5.35825419 78 95 106
0.61876877 1.63362808 4.76211729 107 102 87
0.04529335 1.92762432 5.04783125 76 88 88
-0.17341228 2.01798154 5.42163856 164 179 176
0.33174300 0.83657553 5.50300230 104 111 115
0.30922724 0.10108149 5.29278412 79 86 92
-0.19039690 -0.46855423 4.96461428 198 146 86
0.27434714 0.77918414 5.44475654 100 108 111
-0.11709290 -0.32339454 4.89069023 54 61 69
0.48020734 0.18290092 5.50230480 186 190 189
0.10353579 1.95236422 5.03194982 160 162 148
0.26904014 1.56215232 5.13358766 216 219 202
-0.12955040 -0.10597959 5.08343689 104 101 93
8.53129114 -5.76816605 16.66124019 55 67 79
-1.02853433 0.20626618 5.56735403 66 85 99
7.17587828 -3.75245354 15.18063635 79 99 124
0.34639985 0.05187596 5.31303428 172 160 146
-0.14937605 0.08594196 5.08145241 137 126 106
0.48017405 1.20276419 5.81124560 45 35 29
0.24971707 0.19738541 5.34398117 101 108 114
0.27721052 -0.18007876 5.17235641 73 80 88
0.26904012 1.56215231 5.13358762 216 219 202
0.05788627 -0.15382330 5.07138521 176 168 158
0.24971706 0.19738541 5.34398115 101 108 114
0.00633444 1.74489584 5.06212351 139 148 143
0.35901168 0.75461193 5.51003800 111 120 127
0.00000000 0.00000000 0.00000000 88 166 255
-0.00610468 -0.00427328 0.01220937 88 166 255
-0.01220937 -0.00854656 0.02441873 88 166 255
-0.01831405 -0.01281984 0.03662810 88 166 255
-0.02441873 -0.01709311 0.04883747 88 166 255
-0.03052342 -0.02136639 0.06104683 88 166 255
-0.03662810 -0.02563967 0.07325620 88 166 255
-0.04273278 -0.02991295 0.08546557 88 166 255
-0.04883747 -0.03418623 0.09767494 88 166 255
-0.05494215 -0.03845951 0.10988430 88 166 255
-0.06104683 -0.04273278 0.12209367 88 166 255
-0.06715152 -0.04700606 0.13430304 88 166 255
-0.07325620 -0.05127934 0.14651240 88 166 255
-0.07936089 -0.05555262 0.15872177 88 166 255
-0.08546557 -0.05982590 0.17093114 88 166 255
-0.09157025 -0.06409918 0.18314050 88 166 255
-0.09767494 -0.06837245 0.19534987 88 166 255
-0.10377962 -0.07264573 0.20755924 88 166 255
-0.10988430 -0.07691901 0.21976860 88 166 255
-0.11598899 -0.08119229 0.23197797 88 166 255
-0.12209367 -0.08546557 0.24418734 88 166 255
-0.12819835 -0.08973885 0.25639671 88 166 255
-0.13430304 -0.09401213 0.26860607 88 166 255
-0.14040772 -0.09828540 0.28081544 88 166 255
0.00000000 0.00000000 0.00000000 88 166 255
0.00610468 -0.00427328 0.01220937 88 166 255
0.01220937 -0.00854656 0.02441873 88 166 255
0.01831405 -0.01281984 0.03662810 88 166 255
0.02441873 -0.01709311 0.04883747 88 166 255
0.03052342 -0.02136639 0.06104683 88 166 255
0.03662810 -0.02563967 0.07325620 88 166 255
0.04273278 -0.02991295 0.08546557 88 166 255
0.04883747 -0.03418623 0.09767494 88 166 255
0.05494215 -0.03845951 0.10988430 88 166 255
0.06104683 -0.04273278 0.12209367 88 166 255
0.06715152 -0.04700606 0.13430304 88 166 255
0.07325620 -0.05127934 0.14651240 88 166 255
0.07936089 -0.05555262 0.15872177 88 166 255
0.08546557 -0.05982590 0.17093114 88 166 255
0.09157025 -0.06409918 0.18314050 88 166 255
0.09767494 -0.06837245 0.19534987 88 166 255
0.10377962 -0.07264573 0.20755924 88 166 255
0.10988430 -0.07691901 0.21976860 88 166 255
0.11598899 -0.08119229 0.23197797 88 166 255
0.12209367 -0.08546557 0.24418734 88 166 255
0.12819835 -0.08973885 0.25639671 88 166 255
0.13430304 -0.09401213 0.26860607 88 166 255
0.14040772 -0.09828540 0.28081544 88 166 255
0.00000000 0.00000000 0.00000000 88 166 255
0.00610468 0.00427328 0.01220937 88 166 255
0.01220937 0.00854656 0.02441873 88 166 255
0.01831405 0.01281984 0.03662810 88 166 255
0.02441873 0.01709311 0.04883747 88 166 255
0.03052342 0.02136639 0.06104683 88 166 255
0.03662810 0.02563967 0.07325620 88 166 255
0.04273278 0.02991295 0.08546557 88 166 255
0.04883747 0.03418623 0.09767494 88 166 255
0.05494215 0.03845951 0.10988430 88 166 255
0.06104683 0.04273278 0.12209367 88 166 255
0.06715152 0.04700606 0.13430304 88 166 255
0.07325620 0.05127934 0.14651240 88 166 255
0.07936089 0.05555262 0.15872177 88 166 255
0.08546557 0.05982590 0.17093114 88 166 255
0.09157025 0.06409918 0.18314050 88 166 255
0.09767494 0.06837245 0.19534987 88 166 255
0.10377962 0.07264573 0.20755924 88 166 255
0.10988430 0.07691901 0.21976860 88 166 255
0.11598899 0.08119229 0.23197797 88 166 255
0.12209367 0.08546557 0.24418734 88 166 255
0.12819835 0.08973885 0.25639671 88 166 255
0.13430304 0.09401213 0.26860607 88 166 255
0.14040772 0.09828540 0.28081544 88 166 255
0.00000000 0.00000000 0.00000000 88 166 255
-0.00610468 0.00427328 0.01220937 88 166 255
-0.01220937 0.00854656 0.02441873 88 166 255
-0.01831405 0.01281984 0.03662810 88 166 255
-0.02441873 0.01709311 0.04883747 88 166 255
-0.03052342 0.02136639 0.06104683 88 166 255
-0.03662810 0.02563967 0.07325620 88 166 255
-0.04273278 0.02991295 0.08546557 88 166 255
-0.04883747 0.03418623 0.09767494 88 166 255
-0.05494215 0.03845951 0.10988430 88 166 255
-0.06104683 0.04273278 0.12209367 88 166 255
-0.06715152 0.04700606 0.13430304 88 166 255
-0.07325620 0.05127934 0.14651240 88 166 255
-0.07936089 0.05555262 0.15872177 88 166 255
-0.08546557 0.05982590 0.17093114 88 166 255
-0.09157025 0.06409918 0.18314050 88 166 255
-0.09767494 0.06837245 0.19534987 88 166 255
-0.10377962 0.07264573 0.20755924 88 166 255
-0.10988430 0.07691901 0.21976860 88 166 255
-0.11598899 0.08119229 0.23197797 88 166 255
-0.12209367 0.08546557 0.24418734 88 166 255
-0.12819835 0.08973885 0.25639671 88 166 255
-0.13430304 0.09401213 0.26860607 88 166 255
-0.14040772 0.09828540 0.28081544 88 166 255
-0.14040772 -0.09828540 0.28081544 88 166 255
-0.12819835 -0.09828540 0.28081544 88 166 255
-0.11598899 -0.09828540 0.28081544 88 166 255
-0.10377962 -0.09828540 0.28081544 88 166 255
-0.09157025 -0.09828540 0.28081544 88 166 255
-0.07936089 -0.09828540 0.28081544 88 166 255
-0.06715152 -0.09828540 0.28081544 88 166 255
-0.05494215 -0.09828540 0.28081544 88 166 255
-0.04273278 -0.09828540 0.28081544 88 166 255
-0.03052342 -0.09828540 0.28081544 88 166 255
-0.01831405 -0.09828540 0.28081544 88 166 255
-0.00610468 -0.09828540 0.28081544 88 166 255
0.00610468 -0.09828540 0.28081544 88 166 255
0.01831405 -0.09828540 0.28081544 88 166 255
0.03052342 -0.09828540 0.28081544 88 166 255
0.04273278 -0.09828540 0.28081544 88 166 255
0.05494215 -0.09828540 0.28081544 88 166 255
0.06715152 -0.09828540 0.28081544 88 166 255
0.07936089 -0.09828540 0.28081544 88 166 255
0.09157025 -0.09828540 0.28081544 88 166 255
0.10377962 -0.09828540 0.28081544 88 166 255
0.11598899 -0.09828540 0.28081544 88 166 255
0.12819835 -0.09828540 0.28081544 88 166 255
0.14040772 -0.09828540 0.28081544 88 166 255
0.14040772 -0.09828540 0.28081544 88 166 255
0.14040772 -0.08973885 0.28081544 88 166 255
0.14040772 -0.08119229 0.28081544 88 166 255
0.14040772 -0.07264573 0.28081544 88 166 255
0.14040772 -0.06409918 0.28081544 88 166 255
0.14040772 -0.05555262 0.28081544 88 166 255
0.14040772 -0.04700606 0.28081544 88 166 255
0.14040772 -0.03845951 0.28081544 88 166 255
0.14040772 -0.02991295 0.28081544 88 166 255
0.14040772 -0.02136639 0.28081544 88 166 255
0.14040772 -0.01281984 0.28081544 88 166 255
0.14040772 -0.00427328 0.28081544 88 166 255
0.14040772 0.00427328 0.28081544 88 166 255
0.14040772 0.01281984 0.28081544 88 166 255
0.14040772 0.02136639 0.28081544 88 166 255
0.14040772 0.02991295 0.28081544 88 166 255
0.14040772 0.03845951 0.28081544 88 166 255
0.14040772 0.04700606 0.28081544 88 166 255
0.14040772 0.05555262 0.28081544 88 166 255
0.14040772 0.06409918 0.28081544 88 166 255
0.14040772 0.07264573 0.28081544 88 166 255
0.14040772 0.08119229 0.28081544 88 166 255
0.14040772 0.08973885 0.28081544 88 166 255
0.14040772 0.09828540 0.28081544 88 166 255
0.14040772 0.09828540 0.28081544 88 166 255
0.12819835 0.09828540 0.28081544 88 166 255
0.11598899 0.09828540 0.28081544 88 166 255
0.10377962 0.09828540 0.28081544 88 166 255
0.09157025 0.09828540 0.28081544 88 166 255
0.07936089 0.09828540 0.28081544 88 166 255
0.06715152 0.09828540 0.28081544 88 166 255
0.05494215 0.09828540 0.28081544 88 166 255
0.04273278 0.09828540 0.28081544 88 166 255
0.03052342 0.09828540 0.28081544 88 166 255
0.01831405 0.09828540 0.28081544 88 166 255
0.00610468 0.09828540 0.28081544 88 166 255
-0.00610468 0.09828540 0.28081544 88 166 255
-0.01831405 0.09828540 0.28081544 88 166 255
-0.03052342 0.09828540 0.28081544 88 166 255
-0.04273278 0.09828540 0.28081544 88 166 255
-0.05494215 0.09828540 0.28081544 88 166 255
-0.06715152 0.09828540 0.28081544 88 166 255
-0.07936089 0.09828540 0.28081544 88 166 255
-0.09157025 0.09828540 0.28081544 88 166 255
-0.10377962 0.09828540 0.28081544 88 166 255
-0.11598899 0.09828540 0.28081544 88 166 255
-0.12819835 0.09828540 0.28081544 88 166 255
-0.14040772 0.09828540 0.28081544 88 166 255
-0.14040772 0.09828540 0.28081544 88 166 255
-0.14040772 0.08973885 0.28081544 88 166 255
-0.14040772 0.08119229 0.28081544 88 166 255
-0.14040772 0.07264573 0.28081544 88 166 255
-0.14040772 0.06409918 0.28081544 88 166 255
-0.14040772 0.05555262 0.28081544 88 166 255
-0.14040772 0.04700606 0.28081544 88 166 255
-0.14040772 0.03845951 0.28081544 88 166 255
-0.14040772 0.02991295 0.28081544 88 166 255
-0.14040772 0.02136639 0.28081544 88 166 255
-0.14040772 0.01281984 0.28081544 88 166 255
-0.14040772 0.00427328 0.28081544 88 166 255
-0.14040772 -0.00427328 0.28081544 88 166 255
-0.14040772 -0.01281984 0.28081544 88 166 255
-0.14040772 -0.02136639 0.28081544 88 166 255
-0.14040772 -0.02991295 0.28081544 88 166 255
-0.14040772 -0.03845951 0.28081544 88 166 255
-0.14040772 -0.04700606 0.28081544 88 166 255
-0.14040772 -0.05555262 0.28081544 88 166 255
-0.14040772 -0.06409918 0.28081544 88 166 255
-0.14040772 -0.07264573 0.28081544 88 166 255
-0.14040772 -0.08119229 0.28081544 88 166 255
-0.14040772 -0.08973885 0.28081544 88 166 255
-0.14040772 -0.09828540 0.28081544 88 166 255
0.12973310 0.92309261 0.36203503 255 123 114
0.12326656 0.91713448 0.37331693 255 123 114
0.11680003 0.91117636 0.38459884 255 123 114
0.11033349 0.90521824 0.39588075 255 123 114
0.10386696 0.89926011 0.40716265 255 123 114
0.09740042 0.89330199 0.41844456 255 123 114
0.09093389 0.88734387 0.42972646 255 123 114
0.08446735 0.88138574 0.44100837 255 123 114
0.07800082 0.87542762 0.45229027 255 123 114
0.07153428 0.86946950 0.46357218 255 123 114
0.06506774 0.86351137 0.47485408 255 123 114
0.05860121 0.85755325 0.48613599 255 123 114
0.05213467 0.85159512 0.49741790 255 123 114
0.04566814 0.84563700 0.50869980 255 123 114
0.03920160 0.83967888 0.51998171 255 123 114
0.03273507 0.83372075 0.53126361 255 123 114
0.02626853 0.82776263 0.54254552 255 123 114
0.01980200 0.82180451 0.55382742 255 123 114
0.01333546 0.81584638 0.56510933 255 123 114
0.00686893 0.80988826 0.57639123 255 123 114
0.00040239 0.80393014 0.58767314 255 123 114
-0.00606414 0.79797201 0.59895505 255 123 114
-0.01253068 0.79201389 0.61023695 255 123 114
-0.01899722 0.78605577 0.62151886 255 123 114
0.12973310 0.92309261 0.36203503 255 123 114
0.13546926 0.91716243 0.37371947 255 123 114
0.14120542 0.91123226 0.38540392 255 123 114
0.14694159 0.90530209 0.39708836 255 123 114
0.15267775 0.89937192 0.40877280 255 123 114
0.15841391 0.89344175 0.42045725 255 123 114
0.16415007 0.88751157 0.43214169 255 123 114
0.16988623 0.88158140 0.44382613 255 123 114
0.17562239 0.87565123 0.45551058 255 123 114
0.18135856 0.86972106 0.46719502 255 123 114
0.18709472 0.86379089 0.47887946 255 123 114
0.19283088 0.85786071 0.49056391 255 123 114
0.19856704 0.85193054 0.50224835 255 123 114
0.20430320 0.84600037 0.51393279 255 123 114
0.21003937 0.84007020 0.52561723 255 123 114
0.21577553 0.83414002 0.53730168 255 123 114
0.22151169 0.82820985 0.54898612 255 123 114
0.22724785 0.82227968 0.56067056 255 123 114
0.23298401 0.81634951 0.57235501 255 123 114
0.23872018 0.81041934 0.58403945 255 123 114
0.24445634 0.80448916 0.59572389 255 123 114
0.25019250 0.79855899 0.60740834 255 123 114
0.25592866 0.79262882 0.61909278 255 123 114
0.26166482 0.78669865 0.63077722 255 123 114
0.12973310 0.92309261 0.36203503 255 123 114
0.13541036 0.92562442 0.37491739 255 123 114
0.14108762 0.92815623 0.38779976 255 123 114
0.14676489 0.93068804 0.40068213 255 123 114
0.15244215 0.93321985 0.41356449 255 123 114
0.15811941 0.93575166 0.42644686 255 123 114
0.16379667 0.93828347 0.43932922 255 123 114
0.16947394 0.94081528 0.45221159 255 123 114
0.17515120 0.94334709 0.46509395 255 123 114
0.18082846 0.94587890 0.47797632 255 123 114
0.18650572 0.94841071 0.49085868 255 123 114
0.19218299 0.95094252 0.50374105 255 123 114
0.19786025 0.95347433 0.51662341 255 123 114
0.20353751 0.95600614 0.52950578 255 123 114
0.20921477 0.95853795 0.54238814 255 123 114
0.21489204 0.96106976 0.55527051 255 123 114
0.22056930 0.96360157 0.56815287 255 123 114
0.22624656 0.96613338 0.58103524 255 123 114
0.23192382 0.96866519 0.59391761 255 123 114
0.23760109 0.97119700 0.60679997 255 123 114
0.24327835 0.97372881 0.61968234 255 123 114
0.24895561 0.97626062 0.63256470 255 123 114
0.25463287 0.97879243 0.64544707 255 123 114
0.26031014 0.98132424 0.65832943 255 123 114
0.12973310 0.92309261 0.36203503 255 123 114
0.12320766 0.92559647 0.37451486 255 123 114
0.11668223 0.92810032 0.38699468 255 123 114
0.11015679 0.93060418 0.39947451 255 123 114
0.10363136 0.93310804 0.41195434 255 123 114
0.09710592 0.93561190 0.42443417 255 123 114
0.09058049 0.93811576 0.43691400 255 123 114
0.08405505 0.94061962 0.44939382 255 123 114
0.07752962 0.94312348 0.46187365 255 123 114
0.07100418 0.94562734 0.47435348 255 123 114
0.06447875 0.94813120 0.48683331 255 123 114
0.05795332 0.95063506 0.49931313 255 123 114
0.05142788 0.95313891 0.51179296 255 123 114
0.04490245 0.95564277 0.52427279 255 123 114
0.03837701 0.95814663 0.53675262 255 123 114
0.03185158 0.96065049 0.54923244 255 123 114
0.02532614 0.96315435 0.56171227 255 123 114
0.01880071 0.96565821 0.57419210 255 123 114
0.01227527 0.96816207 0.58667193 255 123 114
0.00574984 0.97066593 0.59915175 255 123 114
-0.00077560 0.97316979 0.61163158 255 123 114
-0.00730103 0.97567365 0.62411141 255 123 114
-0.01382647 0.97817750 0.63659124 255 123 114
-0.02035190 0.98068136 0.64907107 255 123 114
-0.01899722 0.78605577 0.62151886 255 123 114
-0.00679452 0.78608372 0.62192139 255 123 114
0.00540818 0.78611167 0.62232393 255 123 114
0.01761088 0.78613962 0.62272647 255 123 114
0.02981357 0.78616757 0.62312901 255 123 114
0.04201627 0.78619552 0.62353155 255 123 114
0.05421897 0.78622347 0.62393408 255 123 114
0.06642167 0.78625143 0.62433662 255 123 114
0.07862436 0.78627938 0.62473916 255 123 114
0.09082706 0.78630733 0.62514170 255 123 114
0.10302976 0.78633528 0.62554423 255 123 114
0.11523246 0.78636323 0.62594677 255 123 114
0.12743515 0.78639118 0.62634931 255 123 114
0.13963785 0.78641913 0.62675185 255 123 114
0.15184055 0.78644709 0.62715438 255 123 114
0.16404324 0.78647504 0.62755692 255 123 114
0.17624594 0.78650299 0.62795946 255 123 114
0.18844864 0.78653094 0.62836200 255 123 114
0.20065134 0.78655889 0.62876454 255 123 114
0.21285403 0.78658684 0.62916707 255 123 114
0.22505673 0.78661479 0.62956961 255 123 114
0.23725943 0.78664274 0.62997215 255 123 114
0.24946213 0.78667070 0.63037469 255 123 114
0.26166482 0.78669865 0.63077722 255 123 114
0.26166482 0.78669865 0.63077722 255 123 114
0.26160592 0.79516063 0.63197515 255 123 114
0.26154702 0.80362261 0.63317307 255 123 114
0.26148813 0.81208459 0.63437099 255 123 114
0.26142923 0.82054658 0.63556891 255 123 114
0.26137033 0.82900856 0.63676683 255 123 114
0.26131143 0.83747054 0.63796476 255 123 114
0.26125253 0.84593252 0.63916268 255 123 114
0.26119363 0.85439451 0.64036060 255 123 114
0.26113473 0.86285649 0.64155852 255 123 114
0.26107583 0.87131847 0.64275645 255 123 114
0.26101693 0.87978045 0.64395437 255 123 114
0.26095803 0.88824244 0.64515229 255 123 114
0.26089913 0.89670442 0.64635021 255 123 114
0.26084023 0.90516640 0.64754813 255 123 114
0.26078133 0.91362838 0.64874606 255 123 114
0.26072243 0.92209037 0.64994398 255 123 114
0.26066353 0.93055235 0.65114190 255 123 114
0.26060463 0.93901433 0.65233982 255 123 114
0.26054573 0.94747631 0.65353774 255 123 114
0.26048683 0.95593830 0.65473567 255 123 114
0.26042793 0.96440028 0.65593359 255 123 114
0.26036903 0.97286226 0.65713151 255 123 114
0.26031014 0.98132424 0.65832943 255 123 114
0.26031014 0.98132424 0.65832943 255 123 114
0.24810744 0.98129629 0.65792689 255 123 114
0.23590474 0.98126834 0.65752436 255 123 114
0.22370204 0.98124039 0.65712182 255 123 114
0.21149935 0.98121244 0.65671928 255 123 114
0.19929665 0.98118449 0.65631674 255 123 114
0.18709395 0.98115654 0.65591421 255 123 114
0.17489125 0.98112858 0.65551167 255 123 114
0.16268856 0.98110063 0.65510913 255 123 114
0.15048586 0.98107268 0.65470659 255 123 114
0.13828316 0.98104473 0.65430406 255 123 114
0.12608046 0.98101678 0.65390152 255 123 114
0.11387777 0.98098883 0.65349898 255 123 114
0.10167507 0.98096088 0.65309644 255 123 114
0.08947237 0.98093293 0.65269390 255 123 114
0.07726967 0.98090497 0.65229137 255 123 114
0.06506698 0.98087702 0.65188883 255 123 114
0.05286428 0.98084907 0.65148629 255 123 114
0.04066158 0.98082112 0.65108375 255 123 114
0.02845889 0.98079317 0.65068122 255 123 114
0.01625619 0.98076522 0.65027868 255 123 114
0.00405349 0.98073727 0.64987614 255 123 114
-0.00814921 0.98070931 0.64947360 255 123 114
-0.02035190 0.98068136 0.64907107 255 123 114
-0.02035190 0.98068136 0.64907107 255 123 114
-0.02029300 0.97221938 0.64787314 255 123 114
-0.02023411 0.96375740 0.64667522 255 123 114
-0.02017521 0.95529542 0.64547730 255 123 114
-0.02011631 0.94683343 0.64427938 255 123 114
-0.02005741 0.93837145 0.64308146 255 123 114
-0.01999851 0.92990947 0.64188353 255 123 114
-0.01993961 0.92144749 0.64068561 255 123 114
-0.01988071 0.91298550 0.63948769 255 123 114
-0.01982181 0.90452352 0.63828977 255 123 114
-0.01976291 0.89606154 0.63709184 255 123 114
-0.01970401 0.88759956 0.63589392 255 123 114
-0.01964511 0.87913757 0.63469600 255 123 114
-0.01958621 0.87067559 0.63349808 255 123 114
-0.01952731 0.86221361 0.63230016 255 123 114
-0.01946841 0.85375163 0.63110223 255 123 114
-0.01940951 0.84528964 0.62990431 255 123 114
-0.01935061 0.83682766 0.62870639 255 123 114
-0.01929171 0.82836568 0.62750847 255 123 114
-0.01923281 0.81990370 0.62631055 255 123 114
-0.01917391 0.81144171 0.62511262 255 123 114
-0.01911501 0.80297973 0.62391470 255 123 114
-0.01905612 0.79451775 0.62271678 255 123 114
-0.01899722 0.78605577 0.62151886 255 123 114
1.01585584 -0.06930134 0.09140409 126 231 135
1.00743607 -0.07282677 0.10241661 126 231 135
0.99901630 -0.07635219 0.11342913 126 231 135
0.99059653 -0.07987762 0.12444164 126 231 135
0.98217676 -0.08340304 0.13545416 126 231 135
0.97375699 -0.08692847 0.14646668 126 231 135
0.96533723 -0.09045390 0.15747920 126 231 135
0.95691746 -0.09397932 0.16849172 126 231 135
0.94849769 -0.09750475 0.17950424 126 231 135
0.94007792 -0.10103018 0.19051675 126 231 135
0.93165815 -0.10455560 0.20152927 126 231 135
0.92323838 -0.10808103 0.21254179 126 231 135
0.91481861 -0.11160646 0.22355431 126 231 135
0.90639884 -0.11513188 0.23456683 126 231 135
0.89797907 -0.11865731 0.24557935 126 231 135
0.88955930 -0.12218273 0.25659186 126 231 135
0.88113953 -0.12570816 0.26760438 126 231 135
0.87271976 -0.12923359 0.27861690 126 231 135
0.86429999 -0.13275901 0.28962942 126 231 135
0.85588022 -0.13628444 0.30064194 126 231 135
0.84746045 -0.13980987 0.31165446 126 231 135
0.83904068 -0.14333529 0.32266698 126 231 135
0.83062091 -0.14686072 0.33367949 126 231 135
0.82220114 -0.15038614 0.34469201 126 231 135
1.01585584 -0.06930134 0.09140409 126 231 135
1.01942699 -0.07376330 0.10451647 126 231 135
1.02299814 -0.07822526 0.11762885 126 231 135
1.02656929 -0.08268722 0.13074123 126 231 135
1.03014044 -0.08714917 0.14385361 126 231 135
1.03371159 -0.09161113 0.15696599 126 231 135
1.03728274 -0.09607309 0.17007837 126 231 135
1.04085389 -0.10053505 0.18319075 126 231 135
1.04442503 -0.10499701 0.19630313 126 231 135
1.04799618 -0.10945897 0.20941551 126 231 135
1.05156733 -0.11392093 0.22252790 126 231 135
1.05513848 -0.11838289 0.23564028 126 231 135
1.05870963 -0.12284484 0.24875266 126 231 135
1.06228078 -0.12730680 0.26186504 126 231 135
1.06585193 -0.13176876 0.27497742 126 231 135
1.06942308 -0.13623072 0.28808980 126 231 135
1.07299423 -0.14069268 0.30120218 126 231 135
1.07656538 -0.14515464 0.31431456 126 231 135
1.08013652 -0.14961660 0.32742694 126 231 135
1.08370767 -0.15407856 0.34053932 126 231 135
1.08727882 -0.15854051 0.35365170 126 231 135
1.09084997 -0.16300247 0.36676408 126 231 135
1.09442112 -0.16746443 0.37987646 126 231 135
1.09799227 -0.17192639 0.39298884 126 231 135
1.01585584 -0.06930134 0.09140409 126 231 135
1.02010479 -0.06524396 0.10444559 126 231 135
1.02435375 -0.06118657 0.11748709 126 231 135
1.02860270 -0.05712919 0.13052859 126 231 135
1.03285165 -0.05307181 0.14357009 126 231 135
1.03710060 -0.04901442 0.15661160 126 231 135
1.04134955 -0.04495704 0.16965310 126 231 135
1.04559850 -0.04089965 0.18269460 126 231 135
1.04984746 -0.03684227 0.19573610 126 231 135
1.05409641 -0.03278489 0.20877760 126 231 135
1.05834536 -0.02872750 0.22181910 126 231 135
1.06259431 -0.02467012 0.23486060 126 231 135
1.06684326 -0.02061274 0.24790210 126 231 135
1.07109222 -0.01655535 0.26094361 126 231 135
1.07534117 -0.01249797 0.27398511 126 231 135
1.07959012 -0.00844059 0.28702661 126 231 135
1.08383907 -0.00438320 0.30006811 126 231 135
1.08808802 -0.00032582 0.31310961 126 231 135
1.09233697 0.00373156 0.32615111 126 231 135
1.09658593 0.00778895 0.33919261 126 231 135
1.10083488 0.01184633 0.35223412 126 231 135
1.10508383 0.01590371 0.36527562 126 231 135
1.10933278 0.01996110 0.37831712 126 231 135
1.11358173 0.02401848 0.39135862 126 231 135
1.01585584 -0.06930134 0.09140409 126 231 135
1.00811388 -0.06430742 0.10234573 126 231 135
1.00037191 -0.05931351 0.11328737 126 231 135
0.99262994 -0.05431959 0.12422901 126 231 135
0.98488798 -0.04932568 0.13517064 126 231 135
0.97714601 -0.04433176 0.14611228 126 231 135
0.96940404 -0.03933784 0.15705392 126 231 135
0.96166208 -0.03434393 0.16799556 126 231 135
0.95392011 -0.02935001 0.17893720 126 231 135
0.94617814 -0.02435610 0.18987884 126 231 135
0.93843618 -0.01936218 0.20082048 126 231 135
0.93069421 -0.01436826 0.21176212 126 231 135
0.92295224 -0.00937435 0.22270376 126 231 135
0.91521028 -0.00438043 0.23364540 126 231 135
0.90746831 0.00061348 0.24458703 126 231 135
0.89972634 0.00560740 0.25552867 126 231 135
0.89198438 0.01060132 0.26647031 126 231 135
0.88424241 0.01559523 0.27741195 126 231 135
0.87650044 0.02058915 0.28835359 126 231 135
0.86875848 0.02558306 0.29929523 126 231 135
0.86101651 0.03057698 0.31023687 126 231 135
0.85327454 0.03557090 0.32117851 126 231 135
0.84553258 0.04056481 0.33212015 126 231 135
0.83779061 0.04555873 0.34306179 126 231 135
0.82220114 -0.15038614 0.34469201 126 231 135
0.83419206 -0.15132268 0.34679187 126 231 135
0.84618298 -0.15225921 0.34889174 126 231 135
0.85817390 -0.15319574 0.35099160 126 231 135
0.87016482 -0.15413227 0.35309146 126 231 135
0.88215574 -0.15506881 0.35519132 126 231 135
0.89414666 -0.15600534 0.35729119 126 231 135
0.90613757 -0.15694187 0.35939105 126 231 135
0.91812849 -0.15787840 0.36149091 126 231 135
0.93011941 -0.15881494 0.36359077 126 231 135
0.94211033 -0.15975147 0.36569063 126 231 135
0.95410125 -0.16068800 0.36779050 126 231 135
0.96609217 -0.16162453 0.36989036 126 231 135
0.97808309 -0.16256107 0.37199022 126 231 135
0.99007400 -0.16349760 0.37409008 126 231 135
1.00206492 -0.16443413 0.37618995 126 231 135
1.01405584 -0.16537066 0.37828981 126 231 135
1.02604676 -0.16630720 0.38038967 126 231 135
1.03803768 -0.16724373 0.38248953 126 231 135
1.05002860 -0.16818026 0.38458940 126 231 135
1.06201951 -0.16911679 0.38668926 126 231 135
1.07401043 -0.17005333 0.38878912 126 231 135
1.08600135 -0.17098986 0.39088898 126 231 135
1.09799227 -0.17192639 0.39298884 126 231 135
1.09799227 -0.17192639 0.39298884 126 231 135
1.09867007 -0.16340705 0.39291797 126 231 135
1.09934788 -0.15488771 0.39284709 126 231 135
1.10002568 -0.14636836 0.39277621 126 231 135
1.10070348 -0.13784902 0.39270533 126 231 135
1.10138128 -0.12932968 0.39263445 126 231 135
1.10205909 -0.12081034 0.39256357 126 231 135
1.10273689 -0.11229100 0.39249269 126 231 135
1.10341469 -0.10377165 0.39242181 126 231 135
1.10409249 -0.09525231 0.39235093 126 231 135
1.10477030 -0.08673297 0.39228005 126 231 135
1.10544810 -0.07821363 0.39220917 126 231 135
1.10612590 -0.06969428 0.39213829 126 231 135
1.10680371 -0.06117494 0.39206741 126 231 135
1.10748151 -0.05265560 0.39199653 126 231 135
1.10815931 -0.04413626 0.39192565 126 231 135
1.10883711 -0.03561691 0.39185477 126 231 135
1.10951492 -0.02709757 0.39178390 126 231 135
1.11019272 -0.01857823 0.39171302 126 231 135
1.11087052 -0.01005889 0.39164214 126 231 135
1.11154833 -0.00153954 0.39157126 126 231 135
1.11222613 0.00697980 0.39150038 126 231 135
1.11290393 0.01549914 0.39142950 126 231 135
1.11358173 0.02401848 0.39135862 126 231 135
1.11358173 0.02401848 0.39135862 126 231 135
1.10159082 0.02495501 0.38925876 126 231 135
1.08959990 0.02589155 0.38715889 126 231 135
1.07760898 0.02682808 0.38505903 126 231 135
1.06561806 0.02776461 0.38295917 126 231 135
1.05362714 0.02870114 0.38085931 126 231 135
1.04163622 0.02963768 0.37875945 126 231 135
1.02964530 0.03057421 0.37665958 126 231 135
1.01765439 0.03151074 0.37455972 126 231 135
1.00566347 0.03244727 0.37245986 126 231 135
0.99367255 0.03338381 0.37036000 126 231 135
0.98168163 0.03432034 0.36826013 126 231 135
0.96969071 0.03525687 0.36616027 126 231 135
0.95769979 0.03619340 0.36406041 126 231 135
0.94570887 0.03712994 0.36196055 126 231 135
0.93371796 0.03806647 0.35986068 126 231 135
0.92172704 0.03900300 0.35776082 126 231 135
0.90973612 0.03993953 0.35566096 126 231 135
0.89774520 0.04087607 0.35356110 126 231 135
0.88575428 0.04181260 0.35146124 126 231 135
0.87376336 0.04274913 0.34936137 126 231 135
0.86177245 0.04368566 0.34726151 126 231 135
0.84978153 0.04462220 0.34516165 126 231 135
0.83779061 0.04555873 0.34306179 126 231 135
0.83779061 0.04555873 0.34306179 126 231 135
0.83711281 0.03703939 0.34313267 126 231 135
0.83643500 0.02852004 0.34320354 126 231 135
0.83575720 0.02000070 0.34327442 126 231 135
0.83507940 0.01148136 0.34334530 126 231 135
0.83440159 0.00296202 0.34341618 126 231 135
0.83372379 -0.00555733 0.34348706 126 231 135
0.83304599 -0.01407667 0.34355794 126 231 135
0.83236819 -0.02259601 0.34362882 126 231 135
0.83169038 -0.03111535 0.34369970 126 231 135
0.83101258 -0.03963469 0.34377058 126 231 135
0.83033478 -0.04815404 0.34384146 126 231 135
0.82965698 -0.05667338 0.34391234 126 231 135
0.82897917 -0.06519272 0.34398322 126 231 135
0.82830137 -0.07371206 0.34405410 126 231 135
0.82762357 -0.08223141 0.34412498 126 231 135
0.82694576 -0.09075075 0.34419586 126 231 135
0.82626796 -0.09927009 0.34426674 126 231 135
0.82559016 -0.10778943 0.34433761 126 231 135
0.82491236 -0.11630878 0.34440849 126 231 135
0.82423455 -0.12482812 0.34447937 126 231 135
0.82355675 -0.13334746 0.34455025 126 231 135
0.82287895 -0.14186680 0.34462113 126 231 135
0.82220114 -0.15038614 0.34469201 126 231 135
0.68254049 -0.82806521 -0.20250939 210 168 255
0.67474178 -0.83005930 -0.19068567 210 168 255
0.66694306 -0.83205339 -0.17886195 210 168 255
0.65914435 -0.83404747 -0.16703823 210 168 255
0.65134563 -0.83604156 -0.15521451 210 168 255
0.64354692 -0.83803564 -0.14339079 210 168 255
0.63574820 -0.84002973 -0.13156707 210 168 255
0.62794949 -0.84202381 -0.11974335 210 168 255
0.62015077 -0.84401790 -0.10791963 210 168 255
0.61235205 -0.84601198 -0.09609591 210 168 255
0.60455334 -0.84800607 -0.08427218 210 168 255
0.59675462 -0.85000016 -0.07244846 210 168 255
0.58895591 -0.85199424 -0.06062474 210 168 255
0.58115719 -0.85398833 -0.04880102 210 168 255
0.57335848 -0.85598241 -0.03697730 210 168 255
0.56555976 -0.85797650 -0.02515358 210 168 255
0.55776104 -0.85997058 -0.01332986 210 168 255
0.54996233 -0.86196467 -0.00150614 210 168 255
0.54216361 -0.86395876 0.01031758 210 168 255
0.53436490 -0.86595284 0.02214130 210 168 255
0.52656618 -0.86794693 0.03396502 210 168 255
0.51876747 -0.86994101 0.04578874 210 168 255
0.51096875 -0.87193510 0.05761246 210 168 255
0.50317003 -0.87392918 0.06943618 210 168 255
0.68254049 -0.82806521 -0.20250939 210 168 255
0.68682322 -0.83096536 -0.18917357 210 168 255
0.69110595 -0.83386551 -0.17583775 210 168 255
0.69538867 -0.83676566 -0.16250193 210 168 255
0.69967140 -0.83966580 -0.14916611 210 168 255
0.70395413 -0.84256595 -0.13583029 210 168 255
0.70823685 -0.84546610 -0.12249447 210 168 255
0.71251958 -0.84836625 -0.10915865 210 168 255
0.71680231 -0.85126640 -0.09582283 210 168 255
0.72108503 -0.85416654 -0.08248701 210 168 255
0.72536776 -0.85706669 -0.06915119 210 168 255
0.72965049 -0.85996684 -0.05581537 210 168 255
0.73393321 -0.86286699 -0.04247954 210 168 255
0.73821594 -0.86576713 -0.02914372 210 168 255
0.74249867 -0.86866728 -0.01580790 210 168 255
0.74678139 -0.87156743 -0.00247208 210 168 255
0.75106412 -0.87446758 0.01086374 210 168 255
0.75534685 -0.87736772 0.02419956 210 168 255
0.75962957 -0.88026787 0.03753538 210 168 255
0.76391230 -0.88316802 0.05087120 210 168 255
0.76819503 -0.88606817 0.06420702 210 168 255
0.77247775 -0.88896832 0.07754284 210 168 255
0.77676048 -0.89186846 0.09087866 210 168 255
0.78104321 -0.89476861 0.10421448 210 168 255
0.68254049 -0.82806521 -0.20250939 210 168 255
0.68760010 -0.82253282 -0.19032786 210 168 255
0.69265970 -0.81700043 -0.17814632 210 168 255
0.69771931 -0.81146804 -0.16596479 210 168 255
0.70277891 -0.80593565 -0.15378326 210 168 255
0.70783851 -0.80040326 -0.14160172 210 168 255
0.71289812 -0.79487086 -0.12942019 210 168 255
0.71795772 -0.78933847 -0.11723865 210 168 255
0.72301733 -0.78380608 -0.10505712 210 168 255
0.72807693 -0.77827369 -0.09287559 210 168 255
0.73313654 -0.77274130 -0.08069405 210 168 255
0.73819614 -0.76720891 -0.06851252 210 168 255
0.74325574 -0.76167652 -0.05633099 210 168 255
0.74831535 -0.75614412 -0.04414945 210 168 255
0.75337495 -0.75061173 -0.03196792 210 168 255
0.75843456 -0.74507934 -0.01978639 210 168 255
