ply
format ascii 1.0
element vertex 1052
property float x
property float y
property float z
property uchar red
property uchar green
property uchar blue
end_header
-0.04056557 1.82492091 1.19976014 126 231 135
-0.05800452 1.82449902 1.20039561 126 231 135
-0.07544348 1.82407713 1.20103108 126 231 135
-0.09288243 1.82365525 1.20166656 126 231 135
-0.11032138 1.82323336 1.20230203 126 231 135
-0.12776033 1.82281147 1.20293751 126 231 135
-0.14519929 1.82238958 1.20357298 126 231 135
-0.16263824 1.82196770 1.20420846 126 231 135
-0.18007719 1.82154581 1.20484393 126 231 135
-0.19751614 1.82112392 1.20547940 126 231 135
-0.21495510 1.82070203 1.20611488 126 231 135
-0.23239405 1.82028014 1.20675035 126 231 135
-0.24983300 1.81985826 1.20738583 126 231 135
-0.26727195 1.81943637 1.20802130 126 231 135
-0.28471091 1.81901448 1.20865677 126 231 135
-0.30214986 1.81859259 1.20929225 126 231 135
-0.31958881 1.81817070 1.20992772 126 231 135
-0.33702776 1.81774882 1.21056320 126 231 135
-0.35446672 1.81732693 1.21119867 126 231 135
-0.37190567 1.81690504 1.21183414 126 231 135
-0.38934462 1.81648315 1.21246962 126 231 135
-0.40678357 1.81606127 1.21310509 126 231 135
-0.40678357 1.81606127 1.21310509 126 231 135
-0.40662784 1.80435484 1.20960683 126 231 135
-0.40647212 1.79264842 1.20610858 126 231 135
-0.40631639 1.78094199 1.20261032 126 231 135
-0.40616066 1.76923557 1.19911206 126 231 135
-0.40600493 1.75752914 1.19561380 126 231 135
-0.40584920 1.74582272 1.19211554 126 231 135
-0.40569347 1.73411629 1.18861729 126 231 135
-0.40553774 1.72240986 1.18511903 126 231 135
-0.40538201 1.71070344 1.18162077 126 231 135
-0.40522629 1.69899701 1.17812251 126 231 135
-0.40507056 1.68729059 1.17462425 126 231 135
-0.40491483 1.67558416 1.17112600 126 231 135
-0.40475910 1.66387774 1.16762774 126 231 135
-0.40460337 1.65217131 1.16412948 126 231 135
-0.40444764 1.64046489 1.16063122 126 231 135
-0.40429191 1.62875846 1.15713297 126 231 135
-0.40413618 1.61705204 1.15363471 126 231 135
-0.40398046 1.60534561 1.15013645 126 231 135
-0.40382473 1.59363919 1.14663819 126 231 135
-0.40366900 1.58193276 1.14313993 126 231 135
-0.40351327 1.57022634 1.13964168 126 231 135
-0.40335754 1.55851991 1.13614342 126 231 135
-0.40320181 1.54681349 1.13264516 126 231 135
2.69884468 -1.91698273 0.16943786 210 168 255
2.68283260 -1.91749699 0.18214801 210 168 255
2.66682052 -1.91801124 0.19485817 210 168 255
2.65080843 -1.91852550 0.20756832 210 168 255
2.63479635 -1.91903975 0.22027847 210 168 255
2.61878427 -1.91955401 0.23298862 210 168 255
2.60277219 -1.92006826 0.24569878 210 168 255
2.58676011 -1.92058251 0.25840893 210 168 255
2.57074802 -1.92109677 0.27111908 210 168 255
2.55473594 -1.92161102 0.28382923 210 168 255
2.53872386 -1.92212528 0.29653939 210 168 255
2.52271178 -1.92263953 0.30924954 210 168 255
2.50669969 -1.92315379 0.32195969 210 168 255
2.49068761 -1.92366804 0.33466984 210 168 255
2.47467553 -1.92418230 0.34738000 210 168 255
2.45866345 -1.92469655 0.36009015 210 168 255
2.44265137 -1.92521081 0.37280030 210 168 255
2.42663928 -1.92572506 0.38551045 210 168 255
2.41062720 -1.92623932 0.39822061 210 168 255
2.39461512 -1.92675357 0.41093076 210 168 255
2.37860304 -1.92726783 0.42364091 210 168 255
2.36259095 -1.92778208 0.43635106 210 168 255
2.34657887 -1.92829633 0.44906122 210 168 255
2.33056679 -1.92881059 0.46177137 210 168 255
2.69884468 -1.91698273 0.16943786 210 168 255
2.69847131 -1.91864787 0.18981646 210 168 255
2.69809794 -1.92031300 0.21019505 210 168 255
2.69772457 -1.92197814 0.23057365 210 168 255
2.69735120 -1.92364327 0.25095224 210 168 255
2.69697783 -1.92530841 0.27133083 210 168 255
2.69660447 -1.92697354 0.29170943 210 168 255
2.69623110 -1.92863868 0.31208802 210 168 255
2.69585773 -1.93030381 0.33246662 210 168 255
2.69548436 -1.93196895 0.35284521 210 168 255
2.69511099 -1.93363408 0.37322381 210 168 255
2.69473762 -1.93529922 0.39360240 210 168 255
2.69436425 -1.93696435 0.41398100 210 168 255
2.69399088 -1.93862949 0.43435959 210 168 255
2.69361751 -1.94029462 0.45473819 210 168 255
2.69324414 -1.94195976 0.47511678 210 168 255
2.69287077 -1.94362489 0.49549538 210 168 255
2.69249740 -1.94529003 0.51587397 210 168 255
2.69212403 -1.94695516 0.53625257 210 168 255
2.69175067 -1.94862030 0.55663116 210 168 255
2.69137730 -1.95028543 0.57700976 210 168 255
2.69100393 -1.95195057 0.59738835 210 168 255
2.69063056 -1.95361570 0.61776695 210 168 255
2.69025719 -1.95528083 0.63814554 210 168 255
2.69884468 -1.91698273 0.16943786 210 168 255
2.70064118 -1.90692226 0.18715109 210 168 255
2.70243768 -1.89686178 0.20486433 210 168 255
2.70423418 -1.88680130 0.22257756 210 168 255
2.70603068 -1.87674083 0.24029079 210 168 255
2.70782718 -1.86668035 0.25800402 210 168 255
2.70962368 -1.85661987 0.27571726 210 168 255
2.71142018 -1.84655940 0.29343049 210 168 255
2.71321668 -1.83649892 0.31114372 210 168 255
2.71501317 -1.82643844 0.32885695 210 168 255
2.71680967 -1.81637797 0.34657019 210 168 255
2.71860617 -1.80631749 0.36428342 210 168 255
2.72040267 -1.79625701 0.38199665 210 168 255
2.72219917 -1.78619654 0.39970988 210 168 255
2.72399567 -1.77613606 0.41742312 210 168 255
2.72579217 -1.76607558 0.43513635 210 168 255
2.72758867 -1.75601511 0.45284958 210 168 255
2.72938517 -1.74595463 0.47056282 210 168 255
2.73118167 -1.73589415 0.48827605 210 168 255
2.73297817 -1.72583368 0.50598928 210 168 255
2.73477467 -1.71577320 0.52370251 210 168 255
2.73657117 -1.70571272 0.54141575 210 168 255
2.73836767 -1.69565225 0.55912898 210 168 255
2.74016417 -1.68559177 0.57684221 210 168 255
2.69884468 -1.91698273 0.16943786 210 168 255
2.68500247 -1.90577138 0.17948265 210 168 255
2.67116025 -1.89456002 0.18952744 210 168 255
2.65731804 -1.88334866 0.19957223 210 168 255
2.64347583 -1.87213730 0.20961702 210 168 255
2.62963361 -1.86092595 0.21966181 210 168 255
2.61579140 -1.84971459 0.22970660 210 168 255
2.60194919 -1.83850323 0.23975139 210 168 255
2.58810697 -1.82729188 0.24979618 210 168 255
2.57426476 -1.81608052 0.25984097 210 168 255
2.56042254 -1.80486916 0.26988576 210 168 255
2.54658033 -1.79365781 0.27993055 210 168 255
2.53273812 -1.78244645 0.28997534 210 168 255
2.51889590 -1.77123509 0.30002013 210 168 255
2.50505369 -1.76002374 0.31006492 210 168 255
2.49121148 -1.74881238 0.32010971 210 168 255
2.47736926 -1.73760102 0.33015450 210 168 255
2.46352705 -1.72638967 0.34019929 210 168 255
2.44968484 -1.71517831 0.35024408 210 168 255
2.43584262 -1.70396695 0.36028887 210 168 255
2.42200041 -1.69275560 0.37033366 210 168 255
2.40815819 -1.68154424 0.38037846 210 168 255
2.39431598 -1.67033288 0.39042325 210 168 255
2.38047377 -1.65912153 0.40046804 210 168 255
2.33056679 -1.92881059 0.46177137 210 168 255
2.34620550 -1.92996147 0.46943981 210 168 255
2.36184422 -1.93111235 0.47710825 210 168 255
2.37748293 -1.93226323 0.48477670 210 168 255
2.39312164 -1.93341411 0.49244514 210 168 255
2.40876036 -1.93456499 0.50011358 210 168 255
2.42439907 -1.93571587 0.50778202 210 168 255
2.44003778 -1.93686675 0.51545046 210 168 255
2.45567649 -1.93801763 0.52311891 210 168 255
2.47131521 -1.93916851 0.53078735 210 168 255
2.48695392 -1.94031939 0.53845579 210 168 255
2.50259263 -1.94147027 0.54612423 210 168 255
2.51823135 -1.94262115 0.55379268 210 168 255
2.53387006 -1.94377203 0.56146112 210 168 255
2.54950877 -1.94492291 0.56912956 210 168 255
2.56514748 -1.94607379 0.57679800 210 168 255
2.58078620 -1.94722467 0.58446645 210 168 255
2.59642491 -1.94837555 0.59213489 210 168 255
2.61206362 -1.94952643 0.59980333 210 168 255
2.62770234 -1.95067731 0.60747177 210 168 255
2.64334105 -1.95182819 0.61514022 210 168 255
2.65897976 -1.95297907 0.62280866 210 168 255
2.67461848 -1.95412995 0.63047710 210 168 255
2.69025719 -1.95528083 0.63814554 210 168 255
2.69025719 -1.95528083 0.63814554 210 168 255
2.69242706 -1.94355522 0.63548018 210 168 255
2.69459693 -1.93182961 0.63281482 210 168 255
2.69676679 -1.92010400 0.63014946 210 168 255
2.69893666 -1.90837839 0.62748409 210 168 255
2.70110653 -1.89665278 0.62481873 210 168 255
2.70327640 -1.88492717 0.62215337 210 168 255
2.70544627 -1.87320155 0.61948801 210 168 255
2.70761614 -1.86147594 0.61682265 210 168 255
2.70978601 -1.84975033 0.61415728 210 168 255
2.71195587 -1.83802472 0.61149192 210 168 255
2.71412574 -1.82629911 0.60882656 210 168 255
2.71629561 -1.81457350 0.60616120 210 168 255
2.71846548 -1.80284789 0.60349583 210 168 255
2.72063535 -1.79112227 0.60083047 210 168 255
2.72280522 -1.77939666 0.59816511 210 168 255
2.72497509 -1.76767105 0.59549975 210 168 255
2.72714495 -1.75594544 0.59283439 210 168 255
2.72931482 -1.74421983 0.59016902 210 168 255
2.73148469 -1.73249422 0.58750366 210 168 255
2.73365456 -1.72076861 0.58483830 210 168 255
2.73582443 -1.70904299 0.58217294 210 168 255
2.73799430 -1.69731738 0.57950757 210 168 255
2.74016417 -1.68559177 0.57684221 210 168 255
2.74016417 -1.68559177 0.57684221 210 168 255
2.72452545 -1.68444089 0.56917377 210 168 255
2.70888674 -1.68329001 0.56150533 210 168 255
2.69324803 -1.68213913 0.55383688 210 168 255
2.67760931 -1.68098825 0.54616844 210 168 255
2.66197060 -1.67983737 0.53850000 210 168 255
2.64633189 -1.67868649 0.53083156 210 168 255
2.63069317 -1.67753561 0.52316311 210 168 255
2.61505446 -1.67638473 0.51549467 210 168 255
2.59941575 -1.67523385 0.50782623 210 168 255
2.58377704 -1.67408297 0.50015779 210 168 255
2.56813832 -1.67293209 0.49248934 210 168 255
2.55249961 -1.67178121 0.48482090 210 168 255
2.53686090 -1.67063033 0.47715246 210 168 255
2.52122218 -1.66947945 0.46948402 210 168 255
2.50558347 -1.66832857 0.46181558 210 168 255
2.48994476 -1.66717769 0.45414713 210 168 255
2.47430604 -1.66602681 0.44647869 210 168 255
2.45866733 -1.66487593 0.43881025 210 168 255
2.44302862 -1.66372505 0.43114181 210 168 255
2.42738991 -1.66257417 0.42347336 210 168 255
2.41175119 -1.66142329 0.41580492 210 168 255
2.39611248 -1.66027241 0.40813648 210 168 255
2.38047377 -1.65912153 0.40046804 210 168 255
2.38047377 -1.65912153 0.40046804 210 168 255
2.37830390 -1.67084714 0.40313340 210 168 255
2.37613403 -1.68257275 0.40579876 210 168 255
2.37396416 -1.69429836 0.40846412 210 168 255
2.37179429 -1.70602397 0.41112948 210 168 255
2.36962442 -1.71774958 0.41379485 210 168 255
2.36745456 -1.72947519 0.41646021 210 168 255
2.36528469 -1.74120081 0.41912557 210 168 255
2.36311482 -1.75292642 0.42179093 210 168 255
2.36094495 -1.76465203 0.42445630 210 168 255
2.35877508 -1.77637764 0.42712166 210 168 255
2.35660521 -1.78810325 0.42978702 210 168 255
2.35443534 -1.79982886 0.43245238 210 168 255
2.35226548 -1.81155447 0.43511775 210 168 255
2.35009561 -1.82328009 0.43778311 210 168 255
2.34792574 -1.83500570 0.44044847 210 168 255
2.34575587 -1.84673131 0.44311383 210 168 255
2.34358600 -1.85845692 0.44577919 210 168 255
2.34141613 -1.87018253 0.44844456 210 168 255
2.33924626 -1.88190814 0.45110992 210 168 255
2.33707640 -1.89363376 0.45377528 210 168 255
2.33490653 -1.90535937 0.45644064 210 168 255
2.33273666 -1.91708498 0.45910601 210 168 255
2.33056679 -1.92881059 0.46177137 210 168 255
2.20103097 -3.24096360 0.71288017 255 166 87
2.18554342 -3.23751303 0.72578088 255 166 87
2.17005586 -3.23406246 0.73868159 255 166 87
2.15456831 -3.23061188 0.75158231 255 166 87
2.13908075 -3.22716131 0.76448302 255 166 87
2.12359320 -3.22371074 0.77738374 255 166 87
2.10810565 -3.22026017 0.79028445 255 166 87
2.09261809 -3.21680959 0.80318516 255 166 87
2.07713054 -3.21335902 0.81608588 255 166 87
2.06164298 -3.20990845 0.82898659 255 166 87
2.04615543 -3.20645788 0.84188731 255 166 87
2.03066787 -3.20300730 0.85478802 255 166 87
2.01518032 -3.19955673 0.86768873 255 166 87
1.99969277 -3.19610616 0.88058945 255 166 87
1.98420521 -3.19265559 0.89349016 255 166 87
1.96871766 -3.18920501 0.90639088 255 166 87
1.95323010 -3.18575444 0.91929159 255 166 87
1.93774255 -3.18230387 0.93219230 255 166 87
1.92225499 -3.17885330 0.94509302 255 166 87
1.90676744 -3.17540273 0.95799373 255 166 87
1.89127988 -3.17195215 0.97089445 255 166 87
1.87579233 -3.16850158 0.98379516 255 166 87
1.86030478 -3.16505101 0.99669587 255 166 87
1.84481722 -3.16160044 1.00959659 255 166 87
2.20103097 -3.24096360 0.71288017 255 166 87
2.20130060 -3.23867976 0.73320037 255 166 87
2.20157023 -3.23639591 0.75352057 255 166 87
2.20183986 -3.23411207 0.77384077 255 166 87
2.20210949 -3.23182823 0.79416097 255 166 87
2.20237912 -3.22954439 0.81448117 255 166 87
2.20264875 -3.22726054 0.83480137 255 166 87
2.20291838 -3.22497670 0.85512157 255 166 87
2.20318800 -3.22269286 0.87544177 255 166 87
2.20345763 -3.22040902 0.89576198 255 166 87
2.20372726 -3.21812517 0.91608218 255 166 87
2.20399689 -3.21584133 0.93640238 255 166 87
2.20426652 -3.21355749 0.95672258 255 166 87
2.20453615 -3.21127365 0.97704278 255 166 87
2.20480578 -3.20898980 0.99736298 255 166 87
2.20507541 -3.20670596 1.01768318 255 166 87
2.20534504 -3.20442212 1.03800338 255 166 87
2.20561467 -3.20213828 1.05832358 255 166 87
2.20588430 -3.19985443 1.07864379 255 166 87
2.20615392 -3.19757059 1.09896399 255 166 87
2.20642355 -3.19528675 1.11928419 255 166 87
2.20669318 -3.19300291 1.13960439 255 166 87
2.20696281 -3.19071906 1.15992459 255 166 87
2.20723244 -3.18843522 1.18024479 255 166 87
2.20103097 -3.24096360 0.71288017 255 166 87
2.20441370 -3.22793817 0.72827804 255 166 87
2.20779643 -3.21491274 0.74367591 255 166 87
2.21117916 -3.20188730 0.75907378 255 166 87
2.21456189 -3.18886187 0.77447166 255 166 87
2.21794462 -3.17583644 0.78986953 255 166 87
2.22132735 -3.16281101 0.80526740 255 166 87
2.22471007 -3.14978558 0.82066527 255 166 87
2.22809280 -3.13676014 0.83606315 255 166 87
2.23147553 -3.12373471 0.85146102 255 166 87
2.23485826 -3.11070928 0.86685889 255 166 87
2.23824099 -3.09768385 0.88225676 255 166 87
2.24162372 -3.08465842 0.89765464 255 166 87
2.24500645 -3.07163299 0.91305251 255 166 87
2.24838918 -3.05860755 0.92845038 255 166 87
2.25177191 -3.04558212 0.94384825 255 166 87
2.25515464 -3.03255669 0.95924613 255 166 87
2.25853736 -3.01953126 0.97464400 255 166 87
2.26192009 -3.00650583 0.99004187 255 166 87
2.26530282 -2.99348039 1.00543974 255 166 87
2.26868555 -2.98045496 1.02083762 255 166 87
2.27206828 -2.96742953 1.03623549 255 166 87
2.27545101 -2.95440410 1.05163336 255 166 87
2.27883374 -2.94137867 1.06703123 255 166 87
2.20103097 -3.24096360 0.71288017 255 166 87
2.18865652 -3.22677144 0.72085855 255 166 87
2.17628206 -3.21257928 0.72883694 255 166 87
2.16390761 -3.19838712 0.73681532 255 166 87
2.15153315 -3.18419495 0.74479371 255 166 87
2.13915870 -3.17000279 0.75277209 255 166 87
2.12678424 -3.15581063 0.76075048 255 166 87
2.11440979 -3.14161847 0.76872886 255 166 87
2.10203534 -3.12742631 0.77670725 255 166 87
2.08966088 -3.11323414 0.78468563 255 166 87
2.07728643 -3.09904198 0.79266402 255 166 87
2.06491197 -3.08484982 0.80064240 255 166 87
2.05253752 -3.07065766 0.80862079 255 166 87
2.04016306 -3.05646550 0.81659918 255 166 87
2.02778861 -3.04227334 0.82457756 255 166 87
2.01541415 -3.02808117 0.83255595 255 166 87
2.00303970 -3.01388901 0.84053433 255 166 87
1.99066525 -2.99969685 0.84851272 255 166 87
1.97829079 -2.98550469 0.85649110 255 166 87
1.96591634 -2.97131253 0.86446949 255 166 87
1.95354188 -2.95712037 0.87244787 255 166 87
1.94116743 -2.94292820 0.88042626 255 166 87
1.92879297 -2.92873604 0.88840464 255 166 87
1.91641852 -2.91454388 0.89638303 255 166 87
1.84481722 -3.16160044 1.00959659 255 166 87
1.86057441 -3.16276717 1.01701607 255 166 87
1.87633159 -3.16393390 1.02443556 255 166 87
1.89208877 -3.16510062 1.03185505 255 166 87
1.90784596 -3.16626735 1.03927454 255 166 87
1.92360314 -3.16743408 1.04669402 255 166 87
1.93936032 -3.16860081 1.05411351 255 166 87
1.95511751 -3.16976754 1.06153300 255 166 87
1.97087469 -3.17093427 1.06895248 255 166 87
1.98663187 -3.17210100 1.07637197 255 166 87
2.00238906 -3.17326773 1.08379146 255 166 87
2.01814624 -3.17443446 1.09121095 255 166 87
2.03390342 -3.17560119 1.09863043 255 166 87
2.04966061 -3.17676792 1.10604992 255 166 87
2.06541779 -3.17793465 1.11346941 255 166 87
2.08117497 -3.17910138 1.12088889 255 166 87
2.09693216 -3.18026811 1.12830838 255 166 87
2.11268934 -3.18143484 1.13572787 255 166 87
2.12844652 -3.18260157 1.14314736 255 166 87
2.14420371 -3.18376830 1.15056684 255 166 87
2.15996089 -3.18493503 1.15798633 255 166 87
2.17571807 -3.18610176 1.16540582 255 166 87
2.19147526 -3.18726849 1.17282530 255 166 87
2.20723244 -3.18843522 1.18024479 255 166 87
2.20723244 -3.18843522 1.18024479 255 166 87
2.21034554 -3.17769363 1.17532246 255 166 87
2.21345864 -3.16695204 1.17040013 255 166 87
2.21657174 -3.15621045 1.16547781 255 166 87
2.21968484 -3.14546886 1.16055548 255 166 87
2.22279794 -3.13472727 1.15563315 255 166 87
2.22591104 -3.12398568 1.15071082 255 166 87
2.22902414 -3.11324409 1.14578849 255 166 87
2.23213724 -3.10250251 1.14086616 255 166 87
2.23525034 -3.09176092 1.13594383 255 166 87
2.23836344 -3.08101933 1.13102150 255 166 87
2.24147654 -3.07027774 1.12609918 255 166 87
2.24458964 -3.05953615 1.12117685 255 166 87
2.24770274 -3.04879456 1.11625452 255 166 87
2.25081584 -3.03805297 1.11133219 255 166 87
2.25392894 -3.02731138 1.10640986 255 166 87
2.25704204 -3.01656979 1.10148753 255 166 87
2.26015514 -3.00582820 1.09656520 255 166 87
2.26326824 -2.99508661 1.09164288 255 166 87
2.26638134 -2.98434502 1.08672055 255 166 87
2.26949444 -2.97360343 1.08179822 255 166 87
2.27260754 -2.96286184 1.07687589 255 166 87
2.27572064 -2.95212026 1.07195356 255 166 87
2.27883374 -2.94137867 1.06703123 255 166 87
2.27883374 -2.94137867 1.06703123 255 166 87
2.26307655 -2.94021194 1.05961175 255 166 87
2.24731937 -2.93904521 1.05219226 255 166 87
2.23156219 -2.93787848 1.04477277 255 166 87
2.21580500 -2.93671175 1.03735328 255 166 87
2.20004782 -2.93554502 1.02993380 255 166 87
2.18429064 -2.93437829 1.02251431 255 166 87
2.16853345 -2.93321156 1.01509482 255 166 87
2.15277627 -2.93204483 1.00767534 255 166 87
2.13701909 -2.93087810 1.00025585 255 166 87
2.12126190 -2.92971137 0.99283636 255 166 87
2.10550472 -2.92854464 0.98541687 255 166 87
2.08974754 -2.92737791 0.97799739 255 166 87
2.07399035 -2.92621118 0.97057790 255 166 87
2.05823317 -2.92504445 0.96315841 255 166 87
2.04247599 -2.92387772 0.95573893 255 166 87
2.02671880 -2.92271099 0.94831944 255 166 87
2.01096162 -2.92154426 0.94089995 255 166 87
1.99520444 -2.92037753 0.93348047 255 166 87
1.97944725 -2.91921080 0.92606098 255 166 87
1.96369007 -2.91804407 0.91864149 255 166 87
1.94793289 -2.91687734 0.91122200 255 166 87
1.93217570 -2.91571061 0.90380252 255 166 87
1.91641852 -2.91454388 0.89638303 255 166 87
1.91641852 -2.91454388 0.89638303 255 166 87
1.91330542 -2.92528547 0.90130536 255 166 87
1.91019232 -2.93602706 0.90622769 255 166 87
1.90707922 -2.94676865 0.91115002 255 166 87
1.90396612 -2.95751024 0.91607234 255 166 87
1.90085302 -2.96825183 0.92099467 255 166 87
1.89773992 -2.97899342 0.92591700 255 166 87
1.89462682 -2.98973501 0.93083933 255 166 87
1.89151372 -3.00047660 0.93576166 255 166 87
1.88840062 -3.01121819 0.94068399 255 166 87
1.88528752 -3.02195977 0.94560632 255 166 87
1.88217442 -3.03270136 0.95052864 255 166 87
1.87906132 -3.04344295 0.95545097 255 166 87
1.87594822 -3.05418454 0.96037330 255 166 87
1.87283512 -3.06492613 0.96529563 255 166 87
1.86972202 -3.07566772 0.97021796 255 166 87
1.86660892 -3.08640931 0.97514029 255 166 87
1.86349582 -3.09715090 0.98006262 255 166 87
1.86038272 -3.10789249 0.98498494 255 166 87
1.85726962 -3.11863408 0.98990727 255 166 87
1.85415652 -3.12937567 0.99482960 255 166 87
1.85104342 -3.14011726 0.99975193 255 166 87
1.84793032 -3.15085885 1.00467426 255 166 87
1.84481722 -3.16160044 1.00959659 255 166 87
3.23038934 -0.96312690 -0.08101925 121 192 255
3.21378486 -0.96654140 -0.06958109 121 192 255
3.19718038 -0.96995590 -0.05814293 121 192 255
3.18057590 -0.97337041 -0.04670476 121 192 255
3.16397142 -0.97678491 -0.03526660 121 192 255
3.14736694 -0.98019941 -0.02382843 121 192 255
3.13076245 -0.98361392 -0.01239027 121 192 255
3.11415797 -0.98702842 -0.00095211 121 192 255
3.09755349 -0.99044292 0.01048606 121 192 255
3.08094901 -0.99385743 0.02192422 121 192 255
3.06434453 -0.99727193 0.03336239 121 192 255
3.04774005 -1.00068644 0.04480055 121 192 255
3.03113557 -1.00410094 0.05623871 121 192 255
3.01453109 -1.00751544 0.06767688 121 192 255
2.99792661 -1.01092995 0.07911504 121 192 255
2.98132213 -1.01434445 0.09055321 121 192 255
2.96471765 -1.01775895 0.10199137 121 192 255
2.94811317 -1.02117346 0.11342953 121 192 255
2.93150869 -1.02458796 0.12486770 121 192 255
2.91490421 -1.02800246 0.13630586 121 192 255
2.89829972 -1.03141697 0.14774403 121 192 255
2.88169524 -1.03483147 0.15918219 121 192 255
2.86509076 -1.03824597 0.17062035 121 192 255
2.84848628 -1.04166048 0.18205852 121 192 255
3.23038934 -0.96312690 -0.08101925 121 192 255
3.22897608 -0.96704388 -0.06099779 121 192 255
3.22756283 -0.97096087 -0.04097632 121 192 255
3.22614957 -0.97487786 -0.02095485 121 192 255
3.22473631 -0.97879485 -0.00093339 121 192 255
3.22332306 -0.98271184 0.01908808 121 192 255
3.22190980 -0.98662882 0.03910954 121 192 255
3.22049655 -0.99054581 0.05913101 121 192 255
3.21908329 -0.99446280 0.07915248 121 192 255
3.21767003 -0.99837979 0.09917394 121 192 255
3.21625678 -1.00229677 0.11919541 121 192 255
3.21484352 -1.00621376 0.13921688 121 192 255
3.21343027 -1.01013075 0.15923834 121 192 255
3.21201701 -1.01404774 0.17925981 121 192 255
3.21060375 -1.01796473 0.19928128 121 192 255
3.20919050 -1.02188171 0.21930274 121 192 255
3.20777724 -1.02579870 0.23932421 121 192 255
3.20636399 -1.02971569 0.25934568 121 192 255
3.20495073 -1.03363268 0.27936714 121 192 255
3.20353747 -1.03754966 0.29938861 121 192 255
3.20212422 -1.04146665 0.31941008 121 192 255
3.20071096 -1.04538364 0.33943154 121 192 255
3.19929770 -1.04930063 0.35945301 121 192 255
3.19788445 -1.05321762 0.37947448 121 192 255
3.23038934 -0.96312690 -0.08101925 121 192 255
3.23010069 -0.95494454 -0.06227986 121 192 255
3.22981204 -0.94676219 -0.04354046 121 192 255
3.22952338 -0.93857984 -0.02480106 121 192 255
3.22923473 -0.93039749 -0.00606167 121 192 255
3.22894608 -0.92221514 0.01267773 121 192 255
3.22865743 -0.91403279 0.03141713 121 192 255
3.22836878 -0.90585043 0.05015653 121 192 255
3.22808012 -0.89766808 0.06889592 121 192 255
3.22779147 -0.88948573 0.08763532 121 192 255
3.22750282 -0.88130338 0.10637472 121 192 255
3.22721417 -0.87312103 0.12511412 121 192 255
3.22692552 -0.86493868 0.14385351 121 192 255
3.22663686 -0.85675633 0.16259291 121 192 255
3.22634821 -0.84857397 0.18133231 121 192 255
3.22605956 -0.84039162 0.20007171 121 192 255
3.22577091 -0.83220927 0.21881110 121 192 255
3.22548226 -0.82402692 0.23755050 121 192 255
3.22519361 -0.81584457 0.25628990 121 192 255
3.22490495 -0.80766222 0.27502929 121 192 255
3.22461630 -0.79947986 0.29376869 121 192 255
3.22432765 -0.79129751 0.31250809 121 192 255
3.22403900 -0.78311516 0.33124749 121 192 255
3.22375035 -0.77493281 0.34998688 121 192 255
3.23038934 -0.96312690 -0.08101925 121 192 255
3.21490946 -0.95444206 -0.07086316 121 192 255
3.19942959 -0.94575722 -0.06070707 121 192 255
3.18394971 -0.93707239 -0.05055097 121 192 255
3.16846983 -0.92838755 -0.04039488 121 192 255
3.15298996 -0.91970272 -0.03023878 121 192 255
3.13751008 -0.91101788 -0.02008269 121 192 255
3.12203020 -0.90233305 -0.00992659 121 192 255
3.10655033 -0.89364821 0.00022950 121 192 255
3.09107045 -0.88496337 0.01038560 121 192 255
3.07559057 -0.87627854 0.02054169 121 192 255
3.06011070 -0.86759370 0.03069779 121 192 255
3.04463082 -0.85890887 0.04085388 121 192 255
3.02915094 -0.85022403 0.05100998 121 192 255
3.01367107 -0.84153919 0.06116607 121 192 255
2.99819119 -0.83285436 0.07132217 121 192 255
2.98271132 -0.82416952 0.08147826 121 192 255
2.96723144 -0.81548469 0.09163436 121 192 255
2.95175156 -0.80679985 0.10179045 121 192 255
2.93627169 -0.79811502 0.11194655 121 192 255
2.92079181 -0.78943018 0.12210264 121 192 255
2.90531193 -0.78074534 0.13225874 121 192 255
2.88983206 -0.77206051 0.14241483 121 192 255
2.87435218 -0.76337567 0.15257092 121 192 255
2.84848628 -1.04166048 0.18205852 121 192 255
2.86367751 -1.04216296 0.19064182 121 192 255
2.87886873 -1.04266545 0.19922512 121 192 255
2.89405996 -1.04316793 0.20780843 121 192 255
2.90925118 -1.04367042 0.21639173 121 192 255
2.92444241 -1.04417290 0.22497503 121 192 255
2.93963363 -1.04467538 0.23355833 121 192 255
2.95482485 -1.04517787 0.24214164 121 192 255
2.97001608 -1.04568035 0.25072494 121 192 255
2.98520730 -1.04618284 0.25930824 121 192 255
3.00039853 -1.04668532 0.26789154 121 192 255
3.01558975 -1.04718780 0.27647485 121 192 255
3.03078098 -1.04769029 0.28505815 121 192 255
3.04597220 -1.04819277 0.29364145 121 192 255
3.06116343 -1.04869526 0.30222475 121 192 255
3.07635465 -1.04919774 0.31080806 121 192 255
3.09154588 -1.04970023 0.31939136 121 192 255
3.10673710 -1.05020271 0.32797466 121 192 255
3.12192833 -1.05070519 0.33655796 121 192 255
3.13711955 -1.05120768 0.34514127 121 192 255
3.15231077 -1.05171016 0.35372457 121 192 255
3.16750200 -1.05221265 0.36230787 121 192 255
3.18269322 -1.05271513 0.37089117 121 192 255
3.19788445 -1.05321762 0.37947448 121 192 255
3.19788445 -1.05321762 0.37947448 121 192 255
3.19900905 -1.04111828 0.37819241 121 192 255
3.20013366 -1.02901894 0.37691034 121 192 255
3.20125826 -1.01691960 0.37562827 121 192 255
3.20238287 -1.00482026 0.37434620 121 192 255
3.20350747 -0.99272092 0.37306413 121 192 255
3.20463207 -0.98062158 0.37178206 121 192 255
3.20575668 -0.96852224 0.37049999 121 192 255
3.20688128 -0.95642290 0.36921792 121 192 255
3.20800589 -0.94432356 0.36793585 121 192 255
3.20913049 -0.93222422 0.36665378 121 192 255
3.21025510 -0.92012488 0.36537171 121 192 255
3.21137970 -0.90802554 0.36408965 121 192 255
3.21250430 -0.89592620 0.36280758 121 192 255
3.21362891 -0.88382686 0.36152551 121 192 255
3.21475351 -0.87172752 0.36024344 121 192 255
3.21587812 -0.85962818 0.35896137 121 192 255
3.21700272 -0.84752885 0.35767930 121 192 255
3.21812732 -0.83542951 0.35639723 121 192 255
3.21925193 -0.82333017 0.35511516 121 192 255
3.22037653 -0.81123083 0.35383309 121 192 255
3.22150114 -0.79913149 0.35255102 121 192 255
3.22262574 -0.78703215 0.35126895 121 192 255
3.22375035 -0.77493281 0.34998688 121 192 255
3.22375035 -0.77493281 0.34998688 121 192 255
3.20855912 -0.77443032 0.34140358 121 192 255
3.19336790 -0.77392784 0.33282028 121 192 255
3.17817667 -0.77342536 0.32423698 121 192 255
3.16298545 -0.77292287 0.31565367 121 192 255
3.14779422 -0.77242039 0.30707037 121 192 255
3.13260300 -0.77191790 0.29848707 121 192 255
3.11741177 -0.77141542 0.28990377 121 192 255
3.10222055 -0.77091294 0.28132046 121 192 255
3.08702932 -0.77041045 0.27273716 121 192 255
3.07183810 -0.76990797 0.26415386 121 192 255
3.05664688 -0.76940548 0.25557056 121 192 255
3.04145565 -0.76890300 0.24698725 121 192 255
3.02626443 -0.76840051 0.23840395 121 192 255
3.01107320 -0.76789803 0.22982065 121 192 255
2.99588198 -0.76739555 0.22123735 121 192 255
2.98069075 -0.76689306 0.21265404 121 192 255
2.96549953 -0.76639058 0.20407074 121 192 255
2.95030830 -0.76588809 0.19548744 121 192 255
2.93511708 -0.76538561 0.18690414 121 192 255
2.91992585 -0.76488312 0.17832083 121 192 255
2.90473463 -0.76438064 0.16973753 121 192 255
2.88954340 -0.76387816 0.16115423 121 192 255
2.87435218 -0.76337567 0.15257092 121 192 255
2.87435218 -0.76337567 0.15257092 121 192 255
2.87322758 -0.77547501 0.15385299 121 192 255
2.87210297 -0.78757435 0.15513506 121 192 255
2.87097837 -0.79967369 0.15641713 121 192 255
2.86985376 -0.81177303 0.15769920 121 192 255
2.86872916 -0.82387237 0.15898127 121 192 255
2.86760455 -0.83597171 0.16026334 121 192 255
2.86647995 -0.84807105 0.16154541 121 192 255
2.86535535 -0.86017039 0.16282748 121 192 255
2.86423074 -0.87226973 0.16410955 121 192 255
2.86310614 -0.88436907 0.16539162 121 192 255
2.86198153 -0.89646841 0.16667369 121 192 255
2.86085693 -0.90856774 0.16795576 121 192 255
2.85973233 -0.92066708 0.16923783 121 192 255
2.85860772 -0.93276642 0.17051989 121 192 255
2.85748312 -0.94486576 0.17180196 121 192 255
2.85635851 -0.95696510 0.17308403 121 192 255
2.85523391 -0.96906444 0.17436610 121 192 255
2.85410930 -0.98116378 0.17564817 121 192 255
2.85298470 -0.99326312 0.17693024 121 192 255
2.85186010 -1.00536246 0.17821231 121 192 255
2.85073549 -1.01746180 0.17949438 121 192 255
2.84961089 -1.02956114 0.18077645 121 192 255
2.84848628 -1.04166048 0.18205852 121 192 255
3.46300994 -0.17117929 0.33710286 88 166 255
3.44592466 -0.17614885 0.34718233 88 166 255
3.42883937 -0.18111840 0.35726181 88 166 255
3.41175409 -0.18608796 0.36734128 88 166 255
3.39466880 -0.19105751 0.37742075 88 166 255
3.37758352 -0.19602706 0.38750023 88 166 255
3.36049824 -0.20099662 0.39757970 88 166 255
3.34341295 -0.20596617 0.40765918 88 166 255
3.32632767 -0.21093573 0.41773865 88 166 255
3.30924238 -0.21590528 0.42781813 88 166 255
3.29215710 -0.22087483 0.43789760 88 166 255
3.27507181 -0.22584439 0.44797708 88 166 255
3.25798653 -0.23081394 0.45805655 88 166 255
3.24090125 -0.23578350 0.46813603 88 166 255
3.22381596 -0.24075305 0.47821550 88 166 255
3.20673068 -0.24572260 0.48829497 88 166 255
3.18964539 -0.25069216 0.49837445 88 166 255
3.17256011 -0.25566171 0.50845392 88 166 255
3.15547483 -0.26063127 0.51853340 88 166 255
3.13838954 -0.26560082 0.52861287 88 166 255
3.12130426 -0.27057037 0.53869235 88 166 255
3.10421897 -0.27553993 0.54877182 88 166 255
3.08713369 -0.28050948 0.55885130 88 166 255
3.07004840 -0.28547904 0.56893077 88 166 255
3.46300994 -0.17117929 0.33710286 88 166 255
3.46060950 -0.17689898 0.35658932 88 166 255
3.45820907 -0.18261867 0.37607578 88 166 255
3.45580863 -0.18833836 0.39556225 88 166 255
3.45340819 -0.19405804 0.41504871 88 166 255
3.45100775 -0.19977773 0.43453518 88 166 255
3.44860732 -0.20549742 0.45402164 88 166 255
3.44620688 -0.21121710 0.47350811 88 166 255
3.44380644 -0.21693679 0.49299457 88 166 255
3.44140600 -0.22265648 0.51248103 88 166 255
3.43900557 -0.22837616 0.53196750 88 166 255
3.43660513 -0.23409585 0.55145396 88 166 255
3.43420469 -0.23981554 0.57094043 88 166 255
3.43180425 -0.24553523 0.59042689 88 166 255
3.42940382 -0.25125491 0.60991336 88 166 255
3.42700338 -0.25697460 0.62939982 88 166 255
3.42460294 -0.26269429 0.64888628 88 166 255
3.42220250 -0.26841397 0.66837275 88 166 255
3.41980207 -0.27413366 0.68785921 88 166 255
3.41740163 -0.27985335 0.70734568 88 166 255
3.41500119 -0.28557303 0.72683214 88 166 255
3.41260075 -0.29129272 0.74631861 88 166 255
3.41020032 -0.29701241 0.76580507 88 166 255
3.40779988 -0.30273210 0.78529153 88 166 255
3.46300994 -0.17117929 0.33710286 88 166 255
3.46133602 -0.16470273 0.35642774 88 166 255
3.45966209 -0.15822617 0.37575263 88 166 255
3.45798817 -0.15174960 0.39507752 88 166 255
3.45631425 -0.14527304 0.41440241 88 166 255
3.45464032 -0.13879648 0.43372730 88 166 255
3.45296640 -0.13231992 0.45305219 88 166 255
3.45129248 -0.12584335 0.47237708 88 166 255
3.44961856 -0.11936679 0.49170197 88 166 255
3.44794463 -0.11289023 0.51102685 88 166 255
3.44627071 -0.10641366 0.53035174 88 166 255
3.44459679 -0.09993710 0.54967663 88 166 255
3.44292286 -0.09346054 0.56900152 88 166 255
3.44124894 -0.08698397 0.58832641 88 166 255
3.43957502 -0.08050741 0.60765130 88 166 255
3.43790109 -0.07403085 0.62697619 88 166 255
3.43622717 -0.06755428 0.64630107 88 166 255
3.43455325 -0.06107772 0.66562596 88 166 255
3.43287932 -0.05460116 0.68495085 88 166 255
3.43120540 -0.04812459 0.70427574 88 166 255
3.42953148 -0.04164803 0.72360063 88 166 255
3.42785755 -0.03517147 0.74292552 88 166 255
3.42618363 -0.02869490 0.76225041 88 166 255
3.42450971 -0.02221834 0.78157529 88 166 255
3.46300994 -0.17117929 0.33710286 88 166 255
3.44665117 -0.16395260 0.34702076 88 166 255
3.43029240 -0.15672590 0.35693865 88 166 255
3.41393363 -0.14949921 0.36685655 88 166 255
3.39757486 -0.14227251 0.37677445 88 166 255
3.38121609 -0.13504581 0.38669235 88 166 255
3.36485732 -0.12781912 0.39661025 88 166 255
3.34849855 -0.12059242 0.40652815 88 166 255
3.33213978 -0.11336572 0.41644605 88 166 255
3.31578101 -0.10613903 0.42636395 88 166 255
3.29942224 -0.09891233 0.43628185 88 166 255
3.28306347 -0.09168564 0.44619974 88 166 255
3.26670470 -0.08445894 0.45611764 88 166 255
3.25034593 -0.07723224 0.46603554 88 166 255
3.23398716 -0.07000555 0.47595344 88 166 255
3.21762839 -0.06277885 0.48587134 88 166 255
3.20126962 -0.05555215 0.49578924 88 166 255
3.18491085 -0.04832546 0.50570714 88 166 255
3.16855208 -0.04109876 0.51562504 88 166 255
3.15219331 -0.03387207 0.52554293 88 166 255
3.13583454 -0.02664537 0.53546083 88 166 255
3.11947577 -0.01941867 0.54537873 88 166 255
3.10311700 -0.01219198 0.55529663 88 166 255
3.08675823 -0.00496528 0.56521453 88 166 255
3.07004840 -0.28547904 0.56893077 88 166 255
3.08473325 -0.28622917 0.57833776 88 166 255
3.09941810 -0.28697930 0.58774475 88 166 255
3.11410294 -0.28772944 0.59715174 88 166 255
3.12878779 -0.28847957 0.60655873 88 166 255
3.14347264 -0.28922970 0.61596572 88 166 255
3.15815748 -0.28997983 0.62537271 88 166 255
3.17284233 -0.29072997 0.63477970 88 166 255
3.18752718 -0.29148010 0.64418669 88 166 255
3.20221202 -0.29223023 0.65359368 88 166 255
3.21689687 -0.29298037 0.66300067 88 166 255
3.23158172 -0.29373050 0.67240766 88 166 255
3.24626656 -0.29448063 0.68181465 88 166 255
3.26095141 -0.29523077 0.69122164 88 166 255
3.27563626 -0.29598090 0.70062863 88 166 255
3.29032110 -0.29673103 0.71003562 88 166 255
3.30500595 -0.29748116 0.71944261 88 166 255
3.31969080 -0.29823130 0.72884960 88 166 255
3.33437564 -0.29898143 0.73825659 88 166 255
3.34906049 -0.29973156 0.74766358 88 166 255
3.36374534 -0.30048170 0.75707057 88 166 255
3.37843018 -0.30123183 0.76647756 88 166 255
3.39311503 -0.30198196 0.77588455 88 166 255
3.40779988 -0.30273210 0.78529153 88 166 255
3.40779988 -0.30273210 0.78529153 88 166 255
3.40852639 -0.29053585 0.78512996 88 166 255
3.40925291 -0.27833960 0.78496838 88 166 255
3.40997942 -0.26614335 0.78480681 88 166 255
3.41070594 -0.25394709 0.78464523 88 166 255
3.41143245 -0.24175084 0.78448366 88 166 255
3.41215896 -0.22955459 0.78432208 88 166 255
3.41288548 -0.21735834 0.78416051 88 166 255
3.41361199 -0.20516209 0.78399893 88 166 255
3.41433851 -0.19296584 0.78383735 88 166 255
3.41506502 -0.18076959 0.78367578 88 166 255
3.41579154 -0.16857334 0.78351420 88 166 255
3.41651805 -0.15637709 0.78335263 88 166 255
3.41724456 -0.14418084 0.78319105 88 166 255
3.41797108 -0.13198459 0.78302948 88 166 255
3.41869759 -0.11978834 0.78286790 88 166 255
3.41942411 -0.10759209 0.78270632 88 166 255
3.42015062 -0.09539584 0.78254475 88 166 255
3.42087714 -0.08319959 0.78238317 88 166 255
3.42160365 -0.07100334 0.78222160 88 166 255
3.42233016 -0.05880709 0.78206002 88 166 255
3.42305668 -0.04661084 0.78189845 88 166 255
3.42378319 -0.03441459 0.78173687 88 166 255
3.42450971 -0.02221834 0.78157529 88 166 255
3.42450971 -0.02221834 0.78157529 88 166 255
3.40982486 -0.02146821 0.77216830 88 166 255
3.39514001 -0.02071807 0.76276131 88 166 255
3.38045517 -0.01996794 0.75335433 88 166 255
3.36577032 -0.01921781 0.74394734 88 166 255
3.35108547 -0.01846767 0.73454035 88 166 255
3.33640063 -0.01771754 0.72513336 88 166 255
3.32171578 -0.01696741 0.71572637 88 166 255
3.30703093 -0.01621728 0.70631938 88 166 255
3.29234609 -0.01546714 0.69691239 88 166 255
3.27766124 -0.01471701 0.68750540 88 166 255
3.26297639 -0.01396688 0.67809841 88 166 255
3.24829155 -0.01321674 0.66869142 88 166 255
3.23360670 -0.01246661 0.65928443 88 166 255
3.21892185 -0.01171648 0.64987744 88 166 255
3.20423701 -0.01096634 0.64047045 88 166 255
3.18955216 -0.01021621 0.63106346 88 166 255
3.17486731 -0.00946608 0.62165647 88 166 255
3.16018247 -0.00871595 0.61224948 88 166 255
3.14549762 -0.00796581 0.60284249 88 166 255
3.13081277 -0.00721568 0.59343550 88 166 255
3.11612793 -0.00646555 0.58402851 88 166 255
3.10144308 -0.00571541 0.57462152 88 166 255
3.08675823 -0.00496528 0.56521453 88 166 255
3.08675823 -0.00496528 0.56521453 88 166 255
3.08603172 -0.01716153 0.56537611 88 166 255
3.08530520 -0.02935778 0.56553768 88 166 255
3.08457869 -0.04155403 0.56569926 88 166 255
3.08385218 -0.05375028 0.56586083 88 166 255
3.08312566 -0.06594653 0.56602241 88 166 255
3.08239915 -0.07814278 0.56618398 88 166 255
3.08167263 -0.09033903 0.56634556 88 166 255
3.08094612 -0.10253528 0.56650714 88 166 255
3.08021960 -0.11473153 0.56666871 88 166 255
3.07949309 -0.12692778 0.56683029 88 166 255
3.07876658 -0.13912403 0.56699186 88 166 255
3.07804006 -0.15132028 0.56715344 88 166 255
3.07731355 -0.16351653 0.56731501 88 166 255
3.07658703 -0.17571278 0.56747659 88 166 255
3.07586052 -0.18790903 0.56763817 88 166 255
3.07513400 -0.20010528 0.56779974 88 166 255
3.07440749 -0.21230153 0.56796132 88 166 255
3.07368098 -0.22449778 0.56812289 88 166 255
3.07295446 -0.23669404 0.56828447 88 166 255
3.07222795 -0.24889029 0.56844604 88 166 255
3.07150143 -0.26108654 0.56860762 88 166 255
3.07077492 -0.27328279 0.56876920 88 166 255
3.07004840 -0.28547904 0.56893077 88 166 255
3.57360365 0.48514927 0.49698089 255 123 114
3.55656731 0.47849696 0.50613015 255 123 114
3.53953097 0.47184465 0.51527942 255 123 114
3.52249463 0.46519234 0.52442869 255 123 114
3.50545829 0.45854003 0.53357796 255 123 114
3.48842195 0.45188772 0.54272723 255 123 114
3.47138561 0.44523541 0.55187650 255 123 114
3.45434927 0.43858311 0.56102577 255 123 114
3.43731293 0.43193080 0.57017503 255 123 114
3.42027659 0.42527849 0.57932430 255 123 114
3.40324025 0.41862618 0.58847357 255 123 114
3.38620391 0.41197387 0.59762284 255 123 114
3.36916757 0.40532156 0.60677211 255 123 114
3.35213123 0.39866925 0.61592138 255 123 114
3.33509489 0.39201694 0.62507065 255 123 114
3.31805855 0.38536463 0.63421991 255 123 114
3.30102221 0.37871232 0.64336918 255 123 114
3.28398587 0.37206002 0.65251845 255 123 114
3.26694953 0.36540771 0.66166772 255 123 114
3.24991319 0.35875540 0.67081699 255 123 114
3.23287685 0.35210309 0.67996626 255 123 114
3.21584051 0.34545078 0.68911553 255 123 114
3.19880417 0.33879847 0.69826479 255 123 114
3.18176783 0.33214616 0.70741406 255 123 114
3.57360365 0.48514927 0.49698089 255 123 114
3.57106338 0.47759099 0.51581221 255 123 114
3.56852310 0.47003271 0.53464353 255 123 114
3.56598283 0.46247443 0.55347485 255 123 114
3.56344256 0.45491615 0.57230617 255 123 114
3.56090229 0.44735787 0.59113749 255 123 114
3.55836201 0.43979958 0.60996881 255 123 114
3.55582174 0.43224130 0.62880013 255 123 114
3.55328147 0.42468302 0.64763145 255 123 114
3.55074120 0.41712474 0.66646277 255 123 114
3.54820092 0.40956646 0.68529409 255 123 114
3.54566065 0.40200818 0.70412541 255 123 114
3.54312038 0.39444990 0.72295673 255 123 114
3.54058011 0.38689162 0.74178805 255 123 114
3.53803983 0.37933334 0.76061937 255 123 114
3.53549956 0.37177506 0.77945069 255 123 114
3.53295929 0.36421678 0.79828201 255 123 114
3.53041902 0.35665850 0.81711333 255 123 114
3.52787874 0.34910022 0.83594465 255 123 114
3.52533847 0.34154193 0.85477597 255 123 114
3.52279820 0.33398365 0.87360729 255 123 114
3.52025793 0.32642537 0.89243861 255 123 114
3.51771765 0.31886709 0.91126993 255 123 114
3.51517738 0.31130881 0.93010125 255 123 114
3.57360365 0.48514927 0.49698089 255 123 114
3.57119493 0.48977278 0.51675512 255 123 114
3.56878621 0.49439629 0.53652936 255 123 114
3.56637749 0.49901980 0.55630359 255 123 114
3.56396877 0.50364331 0.57607783 255 123 114
3.56156005 0.50826682 0.59585207 255 123 114
3.55915133 0.51289034 0.61562630 255 123 114
3.55674261 0.51751385 0.63540054 255 123 114
3.55433389 0.52213736 0.65517478 255 123 114
3.55192517 0.52676087 0.67494901 255 123 114
3.54951645 0.53138438 0.69472325 255 123 114
3.54710773 0.53600789 0.71449749 255 123 114
3.54469901 0.54063140 0.73427172 255 123 114
3.54229029 0.54525491 0.75404596 255 123 114
3.53988157 0.54987842 0.77382019 255 123 114
3.53747285 0.55450194 0.79359443 255 123 114
3.53506413 0.55912545 0.81336867 255 123 114
3.53265541 0.56374896 0.83314290 255 123 114
3.53024669 0.56837247 0.85291714 255 123 114
3.52783797 0.57299598 0.87269138 255 123 114
3.52542925 0.57761949 0.89246561 255 123 114
3.52302053 0.58224300 0.91223985 255 123 114
3.52061181 0.58686651 0.93201409 255 123 114
3.51820309 0.59149002 0.95178832 255 123 114
3.57360365 0.48514927 0.49698089 255 123 114
3.55669886 0.49067875 0.50707307 255 123 114
3.53979407 0.49620823 0.51716526 255 123 114
3.52288929 0.50173772 0.52725744 255 123 114
3.50598450 0.50726720 0.53734962 255 123 114
3.48907971 0.51279668 0.54744181 255 123 114
3.47217493 0.51832617 0.55753399 255 123 114
3.45527014 0.52385565 0.56762618 255 123 114
3.43836535 0.52938513 0.57771836 255 123 114
3.42146056 0.53491461 0.58781055 255 123 114
3.40455578 0.54044410 0.59790273 255 123 114
3.38765099 0.54597358 0.60799492 255 123 114
3.37074620 0.55150306 0.61808710 255 123 114
3.35384141 0.55703255 0.62817929 255 123 114
3.33693663 0.56256203 0.63827147 255 123 114
3.32003184 0.56809151 0.64836366 255 123 114
3.30312705 0.57362099 0.65845584 255 123 114
3.28622226 0.57915048 0.66854803 255 123 114
3.26931748 0.58467996 0.67864021 255 123 114
3.25241269 0.59020944 0.68873240 255 123 114
3.23550790 0.59573893 0.69882458 255 123 114
3.21860311 0.60126841 0.70891677 255 123 114
3.20169833 0.60679789 0.71900895 255 123 114
3.18479354 0.61232737 0.72910114 255 123 114
3.18176783 0.33214616 0.70741406 255 123 114
3.19626390 0.33124019 0.71709611 255 123 114
3.21075997 0.33033422 0.72677817 255 123 114
3.22525603 0.32942825 0.73646022 255 123 114
3.23975210 0.32852227 0.74614227 255 123 114
3.25424817 0.32761630 0.75582432 255 123 114
3.26874424 0.32671033 0.76550637 255 123 114
3.28324030 0.32580436 0.77518842 255 123 114
3.29773637 0.32489839 0.78487048 255 123 114
3.31223244 0.32399242 0.79455253 255 123 114
3.32672851 0.32308644 0.80423458 255 123 114
3.34122457 0.32218047 0.81391663 255 123 114
3.35572064 0.32127450 0.82359868 255 123 114
3.37021671 0.32036853 0.83328073 255 123 114
3.38471278 0.31946256 0.84296278 255 123 114
3.39920884 0.31855659 0.85264484 255 123 114
3.41370491 0.31765061 0.86232689 255 123 114
3.42820098 0.31674464 0.87200894 255 123 114
3.44269704 0.31583867 0.88169099 255 123 114
3.45719311 0.31493270 0.89137304 255 123 114
3.47168918 0.31402673 0.90105509 255 123 114
3.48618525 0.31312076 0.91073715 255 123 114
3.50068131 0.31221478 0.92041920 255 123 114
3.51517738 0.31130881 0.93010125 255 123 114
3.51517738 0.31130881 0.93010125 255 123 114
3.51530893 0.32349060 0.93104416 255 123 114
3.51544049 0.33567240 0.93198708 255 123 114
3.51557204 0.34785419 0.93293000 255 123 114
3.51570359 0.36003598 0.93387291 255 123 114
3.51583514 0.37221777 0.93481583 255 123 114
3.51596670 0.38439956 0.93575875 255 123 114
3.51609825 0.39658135 0.93670166 255 123 114
3.51622980 0.40876315 0.93764458 255 123 114
3.51636136 0.42094494 0.93858749 255 123 114
3.51649291 0.43312673 0.93953041 255 123 114
3.51662446 0.44530852 0.94047333 255 123 114
3.51675601 0.45749031 0.94141624 255 123 114
3.51688757 0.46967211 0.94235916 255 123 114
3.51701912 0.48185390 0.94330208 255 123 114
3.51715067 0.49403569 0.94424499 255 123 114
3.51728222 0.50621748 0.94518791 255 123 114
3.51741378 0.51839927 0.94613082 255 123 114
3.51754533 0.53058107 0.94707374 255 123 114
3.51767688 0.54276286 0.94801666 255 123 114
3.51780843 0.55494465 0.94895957 255 123 114
3.51793999 0.56712644 0.94990249 255 123 114
3.51807154 0.57930823 0.95084541 255 123 114
3.51820309 0.59149002 0.95178832 255 123 114
3.51820309 0.59149002 0.95178832 255 123 114
3.50370702 0.59239600 0.94210627 255 123 114
3.48921096 0.59330197 0.93242422 255 123 114
3.47471489 0.59420794 0.92274217 255 123 114
3.46021882 0.59511391 0.91306012 255 123 114
3.44572275 0.59601988 0.90337806 255 123 114
3.43122669 0.59692586 0.89369601 255 123 114
3.41673062 0.59783183 0.88401396 255 123 114
3.40223455 0.59873780 0.87433191 255 123 114
3.38773848 0.59964377 0.86464986 255 123 114
3.37324242 0.60054974 0.85496781 255 123 114
3.35874635 0.60145571 0.84528575 255 123 114
3.34425028 0.60236169 0.83560370 255 123 114
3.32975421 0.60326766 0.82592165 255 123 114
3.31525815 0.60417363 0.81623960 255 123 114
3.30076208 0.60507960 0.80655755 255 123 114
3.28626601 0.60598557 0.79687550 255 123 114
3.27176994 0.60689154 0.78719345 255 123 114
3.25727388 0.60779752 0.77751139 255 123 114
3.24277781 0.60870349 0.76782934 255 123 114
3.22828174 0.60960946 0.75814729 255 123 114
3.21378568 0.61051543 0.74846524 255 123 114
3.19928961 0.61142140 0.73878319 255 123 114
3.18479354 0.61232737 0.72910114 255 123 114
3.18479354 0.61232737 0.72910114 255 123 114
3.18466199 0.60014558 0.72815822 255 123 114
3.18453043 0.58796379 0.72721530 255 123 114
3.18439888 0.57578200 0.72627239 255 123 114
3.18426733 0.56360021 0.72532947 255 123 114
3.18413578 0.55141841 0.72438655 255 123 114
3.18400422 0.53923662 0.72344364 255 123 114
3.18387267 0.52705483 0.72250072 255 123 114
3.18374112 0.51487304 0.72155781 255 123 114
3.18360957 0.50269125 0.72061489 255 123 114
3.18347801 0.49050946 0.71967197 255 123 114
3.18334646 0.47832766 0.71872906 255 123 114
3.18321491 0.46614587 0.71778614 255 123 114
3.18308336 0.45396408 0.71684323 255 123 114
3.18295180 0.44178229 0.71590031 255 123 114
3.18282025 0.42960050 0.71495739 255 123 114
3.18268870 0.41741870 0.71401448 255 123 114
3.18255715 0.40523691 0.71307156 255 123 114
3.18242559 0.39305512 0.71212864 255 123 114
3.18229404 0.38087333 0.71118573 255 123 114
3.18216249 0.36869154 0.71024281 255 123 114
3.18203094 0.35650974 0.70929990 255 123 114
3.18189938 0.34432795 0.70835698 255 123 114
3.18176783 0.33214616 0.70741406 255 123 114
3.77068810 1.18384528 0.76390637 126 231 135
3.75368623 1.17544150 0.77155569 126 231 135
3.73668436 1.16703772 0.77920502 126 231 135
3.71968250 1.15863394 0.78685434 126 231 135
3.70268063 1.15023016 0.79450367 126 231 135
3.68567876 1.14182638 0.80215299 126 231 135
3.66867689 1.13342260 0.80980232 126 231 135
3.65167502 1.12501883 0.81745164 126 231 135
3.63467315 1.11661505 0.82510097 126 231 135
3.61767128 1.10821127 0.83275029 126 231 135
3.60066941 1.09980749 0.84039961 126 231 135
3.58366754 1.09140371 0.84804894 126 231 135
3.56666567 1.08299993 0.85569826 126 231 135
3.54966381 1.07459615 0.86334759 126 231 135
3.53266194 1.06619238 0.87099691 126 231 135
3.51566007 1.05778860 0.87864624 126 231 135
3.49865820 1.04938482 0.88629556 126 231 135
3.48165633 1.04098104 0.89394489 126 231 135
3.46465446 1.03257726 0.90159421 126 231 135
3.44765259 1.02417348 0.90924354 126 231 135
3.43065072 1.01576970 0.91689286 126 231 135
3.41364885 1.00736593 0.92454218 126 231 135
3.39664698 0.99896215 0.93219151 126 231 135
3.37964512 0.99055837 0.93984083 126 231 135
3.77068810 1.18384528 0.76390637 126 231 135
3.76774874 1.17449337 0.78185355 126 231 135
3.76480938 1.16514146 0.79980073 126 231 135
3.76187002 1.15578956 0.81774791 126 231 135
3.75893066 1.14643765 0.83569508 126 231 135
3.75599130 1.13708575 0.85364226 126 231 135
3.75305194 1.12773384 0.87158944 126 231 135
3.75011258 1.11838194 0.88953662 126 231 135
3.74717321 1.10903003 0.90748380 126 231 135
3.74423385 1.09967813 0.92543098 126 231 135
3.74129449 1.09032622 0.94337816 126 231 135
3.73835513 1.08097431 0.96132534 126 231 135
3.73541577 1.07162241 0.97927252 126 231 135
3.73247641 1.06227050 0.99721969 126 231 135
3.72953705 1.05291860 1.01516687 126 231 135
3.72659769 1.04356669 1.03311405 126 231 135
3.72365833 1.03421479 1.05106123 126 231 135
3.72071896 1.02486288 1.06900841 126 231 135
3.71777960 1.01551098 1.08695559 126 231 135
3.71484024 1.00615907 1.10490277 126 231 135
3.71190088 0.99680716 1.12284995 126 231 135
3.70896152 0.98745526 1.14079713 126 231 135
