ply
format ascii 1.0
element vertex 1049
property float x
property float y
property float z
property uchar red
property uchar green
property uchar blue
end_header
-0.15049660 0.58042709 5.26542325 27 36 41
-0.32880365 0.27830340 5.29687827 23 27 27
-0.10612705 1.03542595 5.11084133 51 62 64
-0.28954141 1.39509030 4.51416877 147 139 132
0.14870413 0.90888061 5.22738874 146 133 120
0.26110517 -0.78625702 5.85929852 172 133 76
-0.19689747 -0.75339235 5.66466440 166 125 69
-0.22245186 -0.75138499 5.67188938 166 123 68
0.16078082 -0.78546806 5.78263694 182 143 85
-0.04345926 -0.74162062 5.58474117 204 163 108
0.16355744 -0.72805368 5.60613109 151 110 56
0.24117714 -0.75665994 5.73569001 149 108 52
-0.02231776 -0.75369345 5.64742927 165 125 66
0.74959581 -0.18989679 5.84466478 172 195 201
0.53292345 1.40422775 4.74855400 118 139 150
-0.19689747 -0.75339235 5.66466440 166 125 69
0.31040999 -0.72743427 5.72282853 171 130 76
-0.17535954 -0.75097098 5.65095091 153 111 53
0.15357069 -0.73601120 5.60948517 200 159 105
0.75180725 -0.47627102 5.94312479 181 208 215
-0.36297768 0.26453133 5.33852019 179 204 209
0.24117714 -0.75665994 5.73569001 149 108 52
0.12331211 1.28576329 4.79249409 215 215 203
-0.12450011 -0.72589661 5.56885847 147 104 49
-0.03246440 -0.73512827 5.57643995 143 102 47
0.27458560 -0.76499768 5.77894172 173 132 76
0.79234655 0.59074330 6.02314629 53 61 61
0.75767799 1.21266083 6.22324845 70 83 91
0.08726734 -0.72851837 5.56386445 200 155 98
0.17105180 -0.76533359 5.69848033 159 118 62
-0.13543984 1.28118332 4.54721860 186 177 163
0.32849549 1.22578795 5.45267950 42 56 64
-0.06759100 -0.76224169 5.66904926 177 138 81
-0.06759100 -0.76224169 5.66904926 177 138 81
0.17628587 -0.72568576 5.60166508 214 173 119
-0.69438149 -0.61958230 5.81763430 147 116 86
0.00914560 -0.74319283 5.60273095 162 121 63
-0.61024053 -0.14537541 5.48302730 181 179 166
0.02298386 0.10373196 5.15735393 172 166 152
-0.61912220 1.14646940 4.82970346 214 221 214
0.12532095 -0.75426657 5.66718081 161 119 61
-0.48987987 -0.40492080 5.38596427 77 92 101
-0.44445894 -0.64988256 5.61363926 148 103 46
0.71875204 1.17630467 6.35725414 44 64 71
0.13087191 -0.73623218 5.59565165 199 158 103
-0.44445894 -0.64988256 5.61363926 148 103 46
0.09878236 -0.80559900 5.40902125 210 161 97
0.01497748 -0.60420009 5.25282508 56 65 69
-0.09017060 1.10110534 4.91672748 82 89 88
-0.10569384 -0.29415460 5.25157106 47 56 63
-0.17240501 -0.45888694 5.26501055 164 161 146
0.17724492 -0.77700363 5.64173466 210 164 104
0.43584215 -0.44347696 5.42399457 194 213 217
-0.32869989 -0.69280355 5.52436855 145 90 29
-0.02982179 -0.78600266 5.58390917 210 162 100
0.24983160 -0.76927078 5.74055011 224 178 117
-0.29580851 -0.74167535 5.57229533 166 110 49
-0.01397953 -0.78990921 5.62393203 224 176 111
0.22397052 -0.79315769 5.75177752 184 138 78
0.45249591 -0.72181896 5.82844583 171 125 65
0.06052862 -0.84120148 5.81715682 223 175 111
0.17819529 -0.76730496 5.63205819 141 92 28
-0.31887474 -0.69936691 5.52457289 194 140 80
-0.07623918 -0.80499158 5.63425922 228 182 120
-0.13834956 -0.77264785 5.55966111 218 168 107
0.07626980 -0.80019384 5.64711162 221 177 116
0.36946396 -0.70078883 5.67573074 212 167 106
-0.35488070 -0.71926195 5.58592156 149 94 33
0.13221101 -0.73957859 5.53848740 219 173 113
0.03867937 -0.77088130 5.57626571 216 168 107
0.01204585 -0.79145751 5.61600129 216 170 108
0.11691548 -0.78948572 5.63865928 218 174 113
-0.13429741 -0.58314728 5.26079139 71 69 61
-0.21615139 -0.73465156 5.25695014 210 215 201
0.24381313 -0.73209679 5.66889250 178 137 81
0.06931473 -0.74249595 5.59389893 151 109 53
0.01169263 -0.74582678 5.59948446 162 121 63
-0.01827090 -0.75832360 5.64039178 165 125 66
0.01735429 -0.73988137 5.58278850 163 121 63
0.07065142 -0.73268885 5.56624593 194 151 96
0.04985483 -0.71871325 5.54069129 187 142 85
-0.20600364 -0.10658517 5.27212883 92 103 109
0.13177212 0.17989289 5.27118721 167 163 152
0.20464495 -0.73759788 5.29330069 107 129 143
-0.19008797 0.02142942 5.26593466 90 99 103
0.04904965 -0.74362610 6.91110349 133 134 129
-0.04135404 0.03413070 5.25516809 80 86 84
-0.35322315 -0.75896515 5.39373986 153 113 70
-0.37480778 -0.27779411 5.33435442 104 118 127
-0.24163102 -0.28067700 5.28881933 89 102 106
0.07342206 -0.73732418 5.58533444 202 159 104
-0.20552884 1.10789209 5.29760791 63 51 39
0.29773093 0.18685634 5.33934469 147 153 151
-0.47851251 -0.65583816 6.66432781 182 156 131
0.22677753 -0.69968151 5.59826572 202 159 106
0.02504744 -0.71029275 5.51349682 138 95 42
0.24131399 1.49822558 5.20321742 85 103 113
-0.02630980 -0.73835500 5.57376758 151 108 53
0.12091776 1.11171197 5.21254641 162 118 93
0.38098725 -0.60654616 6.60874895 155 126 93
0.04205510 -0.70788409 5.52315884 188 142 89
0.06504595 -0.72631075 5.54220274 129 82 28
0.13087210 -0.70840471 5.55377581 160 117 62
0.13087210 -0.70840471 5.55377581 160 117 62
0.08967630 -0.78308849 5.70330624 169 129 70
0.05107448 -0.71445798 5.53059582 144 99 45
0.84209359 -0.62050890 6.24523544 133 143 145
0.56025428 -0.71191094 6.26275949 135 102 63
0.11932984 -0.74939728 5.62115234 152 109 55
0.37142033 -0.74437713 5.81932439 211 169 111
-0.46316915 -0.62651846 5.57294649 176 133 88
0.36532019 -0.74824762 5.80900127 206 164 106
-0.42638690 -0.63305354 5.55768808 142 100 49
-0.42900859 -0.63575228 5.57764667 193 150 97
0.39606283 1.18074238 4.38566841 179 179 177
-0.42900859 -0.63575228 5.57764667 193 150 97
0.13460687 -0.73374245 5.60034808 198 155 102
-0.13160293 -0.75681192 5.62641902 202 160 102
0.17768334 -0.75515150 5.67231196 156 113 60
-0.46499114 -0.62316568 5.59158550 141 100 48
0.22306035 1.59288794 4.49679672 66 65 63
0.19596032 -0.70723483 5.58966766 203 162 109
0.12207618 -0.72585385 5.57575229 206 163 110
-0.42016236 -0.66437525 5.60847620 146 98 42
0.42677593 -0.70026013 5.76875480 157 116 63
0.05043322 -0.74246475 5.59258718 145 103 46
0.14450100 -0.71380938 5.57961622 165 124 70
0.00357897 -0.73888077 5.58357062 197 155 98
0.22306035 1.59288794 4.49679672 66 65 63
-0.13834372 -0.78535649 5.70731700 204 162 104
0.56025428 -0.71191094 6.26275949 135 102 63
-0.38926827 -0.63827693 5.53676992 149 106 53
-0.00815882 -0.71057271 5.51352012 202 157 100
0.04863055 -0.77242848 5.67404833 163 122 64
0.10582108 -0.71804141 5.57423998 161 117 64
0.76020068 0.11435519 5.89112106 169 184 187
0.10582108 -0.71804141 5.57423998 161 117 64
0.00000000 0.00000000 0.00000000 88 166 255
-0.00896487 -0.00627541 0.01792975 88 166 255
-0.01792975 -0.01255082 0.03585949 88 166 255
-0.02689462 -0.01882623 0.05378924 88 166 255
-0.03585949 -0.02510164 0.07171898 88 166 255
-0.04482436 -0.03137705 0.08964873 88 166 255
-0.05378924 -0.03765246 0.10757847 88 166 255
-0.06275411 -0.04392788 0.12550822 88 166 255
-0.07171898 -0.05020329 0.14343796 88 166 255
-0.08068385 -0.05647870 0.16136771 88 166 255
-0.08964873 -0.06275411 0.17929745 88 166 255
-0.09861360 -0.06902952 0.19722720 88 166 255
-0.10757847 -0.07530493 0.21515694 88 166 255
-0.11654334 -0.08158034 0.23308669 88 166 255
-0.12550822 -0.08785575 0.25101643 88 166 255
-0.13447309 -0.09413116 0.26894618 88 166 255
-0.14343796 -0.10040657 0.28687592 88 166 255
-0.15240283 -0.10668198 0.30480567 88 166 255
-0.16136771 -0.11295739 0.32273541 88 166 255
-0.17033258 -0.11923281 0.34066516 88 166 255
-0.17929745 -0.12550822 0.35859490 88 166 255
-0.18826232 -0.13178363 0.37652465 88 166 255
-0.19722720 -0.13805904 0.39445439 88 166 255
-0.20619207 -0.14433445 0.41238414 88 166 255
0.00000000 0.00000000 0.00000000 88 166 255
0.00896487 -0.00627541 0.01792975 88 166 255
0.01792975 -0.01255082 0.03585949 88 166 255
0.02689462 -0.01882623 0.05378924 88 166 255
0.03585949 -0.02510164 0.07171898 88 166 255
0.04482436 -0.03137705 0.08964873 88 166 255
0.05378924 -0.03765246 0.10757847 88 166 255
0.06275411 -0.04392788 0.12550822 88 166 255
0.07171898 -0.05020329 0.14343796 88 166 255
0.08068385 -0.05647870 0.16136771 88 166 255
0.08964873 -0.06275411 0.17929745 88 166 255
0.09861360 -0.06902952 0.19722720 88 166 255
0.10757847 -0.07530493 0.21515694 88 166 255
0.11654334 -0.08158034 0.23308669 88 166 255
0.12550822 -0.08785575 0.25101643 88 166 255
0.13447309 -0.09413116 0.26894618 88 166 255
0.14343796 -0.10040657 0.28687592 88 166 255
0.15240283 -0.10668198 0.30480567 88 166 255
0.16136771 -0.11295739 0.32273541 88 166 255
0.17033258 -0.11923281 0.34066516 88 166 255
0.17929745 -0.12550822 0.35859490 88 166 255
0.18826232 -0.13178363 0.37652465 88 166 255
0.19722720 -0.13805904 0.39445439 88 166 255
0.20619207 -0.14433445 0.41238414 88 166 255
0.00000000 0.00000000 0.00000000 88 166 255
0.00896487 0.00627541 0.01792975 88 166 255
0.01792975 0.01255082 0.03585949 88 166 255
0.02689462 0.01882623 0.05378924 88 166 255
0.03585949 0.02510164 0.07171898 88 166 255
0.04482436 0.03137705 0.08964873 88 166 255
0.05378924 0.03765246 0.10757847 88 166 255
0.06275411 0.04392788 0.12550822 88 166 255
0.07171898 0.05020329 0.14343796 88 166 255
0.08068385 0.05647870 0.16136771 88 166 255
0.08964873 0.06275411 0.17929745 88 166 255
0.09861360 0.06902952 0.19722720 88 166 255
0.10757847 0.07530493 0.21515694 88 166 255
0.11654334 0.08158034 0.23308669 88 166 255
0.12550822 0.08785575 0.25101643 88 166 255
0.13447309 0.09413116 0.26894618 88 166 255
0.14343796 0.10040657 0.28687592 88 166 255
0.15240283 0.10668198 0.30480567 88 166 255
0.16136771 0.11295739 0.32273541 88 166 255
0.17033258 0.11923281 0.34066516 88 166 255
0.17929745 0.12550822 0.35859490 88 166 255
0.18826232 0.13178363 0.37652465 88 166 255
0.19722720 0.13805904 0.39445439 88 166 255
0.20619207 0.14433445 0.41238414 88 166 255
0.00000000 0.00000000 0.00000000 88 166 255
-0.00896487 0.00627541 0.01792975 88 166 255
-0.01792975 0.01255082 0.03585949 88 166 255
-0.02689462 0.01882623 0.05378924 88 166 255
-0.03585949 0.02510164 0.07171898 88 166 255
-0.04482436 0.03137705 0.08964873 88 166 255
-0.05378924 0.03765246 0.10757847 88 166 255
-0.06275411 0.04392788 0.12550822 88 166 255
-0.07171898 0.05020329 0.14343796 88 166 255
-0.08068385 0.05647870 0.16136771 88 166 255
-0.08964873 0.06275411 0.17929745 88 166 255
-0.09861360 0.06902952 0.19722720 88 166 255
-0.10757847 0.07530493 0.21515694 88 166 255
-0.11654334 0.08158034 0.23308669 88 166 255
-0.12550822 0.08785575 0.25101643 88 166 255
-0.13447309 0.09413116 0.26894618 88 166 255
-0.14343796 0.10040657 0.28687592 88 166 255
-0.15240283 0.10668198 0.30480567 88 166 255
-0.16136771 0.11295739 0.32273541 88 166 255
-0.17033258 0.11923281 0.34066516 88 166 255
-0.17929745 0.12550822 0.35859490 88 166 255
-0.18826232 0.13178363 0.37652465 88 166 255
-0.19722720 0.13805904 0.39445439 88 166 255
-0.20619207 0.14433445 0.41238414 88 166 255
-0.20619207 -0.14433445 0.41238414 88 166 255
-0.18826232 -0.14433445 0.41238414 88 166 255
-0.17033258 -0.14433445 0.41238414 88 166 255
-0.15240283 -0.14433445 0.41238414 88 166 255
-0.13447309 -0.14433445 0.41238414 88 166 255
-0.11654334 -0.14433445 0.41238414 88 166 255
-0.09861360 -0.14433445 0.41238414 88 166 255
-0.08068385 -0.14433445 0.41238414 88 166 255
-0.06275411 -0.14433445 0.41238414 88 166 255
-0.04482436 -0.14433445 0.41238414 88 166 255
-0.02689462 -0.14433445 0.41238414 88 166 255
-0.00896487 -0.14433445 0.41238414 88 166 255
0.00896487 -0.14433445 0.41238414 88 166 255
0.02689462 -0.14433445 0.41238414 88 166 255
0.04482436 -0.14433445 0.41238414 88 166 255
0.06275411 -0.14433445 0.41238414 88 166 255
0.08068385 -0.14433445 0.41238414 88 166 255
0.09861360 -0.14433445 0.41238414 88 166 255
0.11654334 -0.14433445 0.41238414 88 166 255
0.13447309 -0.14433445 0.41238414 88 166 255
0.15240283 -0.14433445 0.41238414 88 166 255
0.17033258 -0.14433445 0.41238414 88 166 255
0.18826232 -0.14433445 0.41238414 88 166 255
0.20619207 -0.14433445 0.41238414 88 166 255
0.20619207 -0.14433445 0.41238414 88 166 255
0.20619207 -0.13178363 0.41238414 88 166 255
0.20619207 -0.11923281 0.41238414 88 166 255
0.20619207 -0.10668198 0.41238414 88 166 255
0.20619207 -0.09413116 0.41238414 88 166 255
0.20619207 -0.08158034 0.41238414 88 166 255
0.20619207 -0.06902952 0.41238414 88 166 255
0.20619207 -0.05647870 0.41238414 88 166 255
0.20619207 -0.04392788 0.41238414 88 166 255
0.20619207 -0.03137705 0.41238414 88 166 255
0.20619207 -0.01882623 0.41238414 88 166 255
0.20619207 -0.00627541 0.41238414 88 166 255
0.20619207 0.00627541 0.41238414 88 166 255
0.20619207 0.01882623 0.41238414 88 166 255
0.20619207 0.03137705 0.41238414 88 166 255
0.20619207 0.04392788 0.41238414 88 166 255
0.20619207 0.05647870 0.41238414 88 166 255
0.20619207 0.06902952 0.41238414 88 166 255
0.20619207 0.08158034 0.41238414 88 166 255
0.20619207 0.09413116 0.41238414 88 166 255
0.20619207 0.10668198 0.41238414 88 166 255
0.20619207 0.11923281 0.41238414 88 166 255
0.20619207 0.13178363 0.41238414 88 166 255
0.20619207 0.14433445 0.41238414 88 166 255
0.20619207 0.14433445 0.41238414 88 166 255
0.18826232 0.14433445 0.41238414 88 166 255
0.17033258 0.14433445 0.41238414 88 166 255
0.15240283 0.14433445 0.41238414 88 166 255
0.13447309 0.14433445 0.41238414 88 166 255
0.11654334 0.14433445 0.41238414 88 166 255
0.09861360 0.14433445 0.41238414 88 166 255
0.08068385 0.14433445 0.41238414 88 166 255
0.06275411 0.14433445 0.41238414 88 166 255
0.04482436 0.14433445 0.41238414 88 166 255
0.02689462 0.14433445 0.41238414 88 166 255
0.00896487 0.14433445 0.41238414 88 166 255
-0.00896487 0.14433445 0.41238414 88 166 255
-0.02689462 0.14433445 0.41238414 88 166 255
-0.04482436 0.14433445 0.41238414 88 166 255
-0.06275411 0.14433445 0.41238414 88 166 255
-0.08068385 0.14433445 0.41238414 88 166 255
-0.09861360 0.14433445 0.41238414 88 166 255
-0.11654334 0.14433445 0.41238414 88 166 255
-0.13447309 0.14433445 0.41238414 88 166 255
-0.15240283 0.14433445 0.41238414 88 166 255
-0.17033258 0.14433445 0.41238414 88 166 255
-0.18826232 0.14433445 0.41238414 88 166 255
-0.20619207 0.14433445 0.41238414 88 166 255
-0.20619207 0.14433445 0.41238414 88 166 255
-0.20619207 0.13178363 0.41238414 88 166 255
-0.20619207 0.11923281 0.41238414 88 166 255
-0.20619207 0.10668198 0.41238414 88 166 255
-0.20619207 0.09413116 0.41238414 88 166 255
-0.20619207 0.08158034 0.41238414 88 166 255
-0.20619207 0.06902952 0.41238414 88 166 255
-0.20619207 0.05647870 0.41238414 88 166 255
-0.20619207 0.04392788 0.41238414 88 166 255
-0.20619207 0.03137705 0.41238414 88 166 255
-0.20619207 0.01882623 0.41238414 88 166 255
-0.20619207 0.00627541 0.41238414 88 166 255
-0.20619207 -0.00627541 0.41238414 88 166 255
-0.20619207 -0.01882623 0.41238414 88 166 255
-0.20619207 -0.03137705 0.41238414 88 166 255
-0.20619207 -0.04392788 0.41238414 88 166 255
-0.20619207 -0.05647870 0.41238414 88 166 255
-0.20619207 -0.06902952 0.41238414 88 166 255
-0.20619207 -0.08158034 0.41238414 88 166 255
-0.20619207 -0.09413116 0.41238414 88 166 255
-0.20619207 -0.10668198 0.41238414 88 166 255
-0.20619207 -0.11923281 0.41238414 88 166 255
-0.20619207 -0.13178363 0.41238414 88 166 255
-0.20619207 -0.14433445 0.41238414 88 166 255
0.25402417 -0.94906758 -0.18639330 255 123 114
0.24445400 -0.95215482 -0.16795132 255 123 114
0.23488384 -0.95524206 -0.14950935 255 123 114
0.22531367 -0.95832931 -0.13106738 255 123 114
0.21574351 -0.96141655 -0.11262540 255 123 114
0.20617335 -0.96450380 -0.09418343 255 123 114
0.19660318 -0.96759104 -0.07574146 255 123 114
0.18703302 -0.97067828 -0.05729948 255 123 114
0.17746285 -0.97376553 -0.03885751 255 123 114
0.16789269 -0.97685277 -0.02041554 255 123 114
0.15832253 -0.97994002 -0.00197357 255 123 114
0.14875236 -0.98302726 0.01646841 255 123 114
0.13918220 -0.98611450 0.03491038 255 123 114
0.12961203 -0.98920175 0.05335235 255 123 114
0.12004187 -0.99228899 0.07179433 255 123 114
0.11047171 -0.99537624 0.09023630 255 123 114
0.10090154 -0.99846348 0.10867827 255 123 114
0.09133138 -1.00155072 0.12712025 255 123 114
0.08176121 -1.00463797 0.14556222 255 123 114
0.07219105 -1.00772521 0.16400419 255 123 114
0.06262089 -1.01081246 0.18244617 255 123 114
0.05305072 -1.01389970 0.20088814 255 123 114
0.04348056 -1.01698694 0.21933011 255 123 114
0.03391040 -1.02007419 0.23777209 255 123 114
0.25402417 -0.94906758 -0.18639330 255 123 114
0.26237450 -0.95226291 -0.16738574 255 123 114
0.27072483 -0.95545824 -0.14837818 255 123 114
0.27907516 -0.95865357 -0.12937062 255 123 114
0.28742550 -0.96184891 -0.11036306 255 123 114
0.29577583 -0.96504424 -0.09135550 255 123 114
0.30412616 -0.96823957 -0.07234795 255 123 114
0.31247649 -0.97143491 -0.05334039 255 123 114
0.32082683 -0.97463024 -0.03433283 255 123 114
0.32917716 -0.97782557 -0.01532527 255 123 114
0.33752749 -0.98102090 0.00368229 255 123 114
0.34587782 -0.98421624 0.02268985 255 123 114
0.35422816 -0.98741157 0.04169741 255 123 114
0.36257849 -0.99060690 0.06070496 255 123 114
0.37092882 -0.99380223 0.07971252 255 123 114
0.37927915 -0.99699757 0.09872008 255 123 114
0.38762949 -1.00019290 0.11772764 255 123 114
0.39597982 -1.00338823 0.13673520 255 123 114
0.40433015 -1.00658357 0.15574276 255 123 114
0.41268048 -1.00977890 0.17475032 255 123 114
0.42103082 -1.01297423 0.19375787 255 123 114
0.42938115 -1.01616956 0.21276543 255 123 114
0.43773148 -1.01936490 0.23177299 255 123 114
0.44608181 -1.02256023 0.25078055 255 123 114
0.25402417 -0.94906758 -0.18639330 255 123 114
0.26251622 -0.93989439 -0.16951244 255 123 114
0.27100827 -0.93072121 -0.15263159 255 123 114
0.27950033 -0.92154803 -0.13575074 255 123 114
0.28799238 -0.91237485 -0.11886988 255 123 114
0.29648444 -0.90320166 -0.10198903 255 123 114
0.30497649 -0.89402848 -0.08510817 255 123 114
0.31346855 -0.88485530 -0.06822732 255 123 114
0.32196060 -0.87568212 -0.05134647 255 123 114
0.33045266 -0.86650893 -0.03446561 255 123 114
0.33894471 -0.85733575 -0.01758476 255 123 114
0.34743677 -0.84816257 -0.00070391 255 123 114
0.35592882 -0.83898939 0.01617695 255 123 114
0.36442088 -0.82981621 0.03305780 255 123 114
0.37291293 -0.82064302 0.04993865 255 123 114
0.38140499 -0.81146984 0.06681951 255 123 114
0.38989704 -0.80229666 0.08370036 255 123 114
0.39838909 -0.79312348 0.10058122 255 123 114
0.40688115 -0.78395029 0.11746207 255 123 114
0.41537320 -0.77477711 0.13434292 255 123 114
0.42386526 -0.76560393 0.15122378 255 123 114
0.43235731 -0.75643075 0.16810463 255 123 114
0.44084937 -0.74725757 0.18498548 255 123 114
0.44934142 -0.73808438 0.20186634 255 123 114
0.25402417 -0.94906758 -0.18639330 255 123 114
0.24459572 -0.93978630 -0.17007803 255 123 114
0.23516728 -0.93050503 -0.15376276 255 123 114
0.22573884 -0.92122376 -0.13744749 255 123 114
0.21631040 -0.91194249 -0.12113222 255 123 114
0.20688196 -0.90266122 -0.10481695 255 123 114
0.19745351 -0.89337995 -0.08850169 255 123 114
0.18802507 -0.88409868 -0.07218642 255 123 114
0.17859663 -0.87481741 -0.05587115 255 123 114
0.16916819 -0.86553614 -0.03955588 255 123 114
0.15973975 -0.85625486 -0.02324061 255 123 114
0.15031131 -0.84697359 -0.00692535 255 123 114
0.14088286 -0.83769232 0.00938992 255 123 114
0.13145442 -0.82841105 0.02570519 255 123 114
0.12202598 -0.81912978 0.04202046 255 123 114
0.11259754 -0.80984851 0.05833573 255 123 114
0.10316910 -0.80056724 0.07465100 255 123 114
0.09374065 -0.79128597 0.09096626 255 123 114
0.08431221 -0.78200470 0.10728153 255 123 114
0.07488377 -0.77272343 0.12359680 255 123 114
0.06545533 -0.76344215 0.13991207 255 123 114
0.05602689 -0.75416088 0.15622734 255 123 114
0.04659845 -0.74487961 0.17254261 255 123 114
0.03717000 -0.73559834 0.18885787 255 123 114
0.03391040 -1.02007419 0.23777209 255 123 114
0.05183089 -1.02018228 0.23833767 255 123 114
0.06975139 -1.02029037 0.23890326 255 123 114
0.08767188 -1.02039845 0.23946884 255 123 114
0.10559238 -1.02050654 0.24003443 255 123 114
0.12351288 -1.02061463 0.24060001 255 123 114
0.14143337 -1.02072272 0.24116560 255 123 114
0.15935387 -1.02083081 0.24173118 255 123 114
0.17727437 -1.02093890 0.24229677 255 123 114
0.19519486 -1.02104699 0.24286235 255 123 114
0.21311536 -1.02115508 0.24342794 255 123 114
0.23103586 -1.02126316 0.24399352 255 123 114
0.24895635 -1.02137125 0.24455911 255 123 114
0.26687685 -1.02147934 0.24512470 255 123 114
0.28479735 -1.02158743 0.24569028 255 123 114
0.30271784 -1.02169552 0.24625587 255 123 114
0.32063834 -1.02180361 0.24682145 255 123 114
0.33855884 -1.02191170 0.24738704 255 123 114
0.35647933 -1.02201979 0.24795262 255 123 114
0.37439983 -1.02212788 0.24851821 255 123 114
0.39232032 -1.02223596 0.24908379 255 123 114
0.41024082 -1.02234405 0.24964938 255 123 114
0.42816132 -1.02245214 0.25021496 255 123 114
0.44608181 -1.02256023 0.25078055 255 123 114
0.44608181 -1.02256023 0.25078055 255 123 114
0.44622354 -1.01019172 0.24865384 255 123 114
0.44636526 -0.99782320 0.24652714 255 123 114
0.44650698 -0.98545468 0.24440043 255 123 114
0.44664870 -0.97308617 0.24227373 255 123 114
0.44679042 -0.96071765 0.24014702 255 123 114
0.44693215 -0.94834914 0.23802032 255 123 114
0.44707387 -0.93598062 0.23589362 255 123 114
0.44721559 -0.92361211 0.23376691 255 123 114
0.44735731 -0.91124359 0.23164021 255 123 114
0.44749904 -0.89887508 0.22951350 255 123 114
0.44764076 -0.88650656 0.22738680 255 123 114
0.44778248 -0.87413805 0.22526009 255 123 114
0.44792420 -0.86176953 0.22313339 255 123 114
0.44806592 -0.84940102 0.22100668 255 123 114
0.44820765 -0.83703250 0.21887998 255 123 114
0.44834937 -0.82466399 0.21675327 255 123 114
0.44849109 -0.81229547 0.21462657 255 123 114
0.44863281 -0.79992696 0.21249986 255 123 114
0.44877453 -0.78755844 0.21037316 255 123 114
0.44891626 -0.77518993 0.20824645 255 123 114
0.44905798 -0.76282141 0.20611975 255 123 114
0.44919970 -0.75045290 0.20399304 255 123 114
0.44934142 -0.73808438 0.20186634 255 123 114
0.44934142 -0.73808438 0.20186634 255 123 114
0.43142093 -0.73797629 0.20130075 255 123 114
0.41350043 -0.73786821 0.20073517 255 123 114
0.39557993 -0.73776012 0.20016958 255 123 114
0.37765944 -0.73765203 0.19960400 255 123 114
0.35973894 -0.73754394 0.19903841 255 123 114
0.34181844 -0.73743585 0.19847283 255 123 114
0.32389795 -0.73732776 0.19790724 255 123 114
0.30597745 -0.73721967 0.19734165 255 123 114
0.28805695 -0.73711158 0.19677607 255 123 114
0.27013646 -0.73700350 0.19621048 255 123 114
0.25221596 -0.73689541 0.19564490 255 123 114
0.23429547 -0.73678732 0.19507931 255 123 114
0.21637497 -0.73667923 0.19451373 255 123 114
0.19845447 -0.73657114 0.19394814 255 123 114
0.18053398 -0.73646305 0.19338256 255 123 114
0.16261348 -0.73635496 0.19281697 255 123 114
0.14469298 -0.73624687 0.19225139 255 123 114
0.12677249 -0.73613878 0.19168580 255 123 114
0.10885199 -0.73603070 0.19112022 255 123 114
0.09093149 -0.73592261 0.19055463 255 123 114
0.07301100 -0.73581452 0.18998904 255 123 114
0.05509050 -0.73570643 0.18942346 255 123 114
0.03717000 -0.73559834 0.18885787 255 123 114
0.03717000 -0.73559834 0.18885787 255 123 114
0.03702828 -0.74796686 0.19098458 255 123 114
0.03688656 -0.76033537 0.19311128 255 123 114
0.03674484 -0.77270389 0.19523799 255 123 114
0.03660312 -0.78507240 0.19736469 255 123 114
0.03646139 -0.79744092 0.19949140 255 123 114
0.03631967 -0.80980943 0.20161810 255 123 114
0.03617795 -0.82217795 0.20374481 255 123 114
0.03603623 -0.83454646 0.20587151 255 123 114
0.03589451 -0.84691498 0.20799822 255 123 114
0.03575278 -0.85928349 0.21012492 255 123 114
0.03561106 -0.87165201 0.21225163 255 123 114
0.03546934 -0.88402052 0.21437833 255 123 114
0.03532762 -0.89638904 0.21650504 255 123 114
0.03518589 -0.90875755 0.21863174 255 123 114
0.03504417 -0.92112607 0.22075845 255 123 114
0.03490245 -0.93349458 0.22288515 255 123 114
0.03476073 -0.94586310 0.22501186 255 123 114
0.03461901 -0.95823161 0.22713856 255 123 114
0.03447728 -0.97060013 0.22926527 255 123 114
0.03433556 -0.98296864 0.23139197 255 123 114
0.03419384 -0.99533716 0.23351868 255 123 114
0.03405212 -1.00770567 0.23564538 255 123 114
0.03391040 -1.02007419 0.23777209 255 123 114
0.40485315 -2.04177475 -0.12889827 126 231 135
0.39477600 -2.04205364 -0.11047006 126 231 135
0.38469886 -2.04233254 -0.09204186 126 231 135
0.37462171 -2.04261143 -0.07361365 126 231 135
0.36454457 -2.04289033 -0.05518544 126 231 135
0.35446743 -2.04316922 -0.03675723 126 231 135
0.34439028 -2.04344811 -0.01832902 126 231 135
0.33431314 -2.04372701 0.00009919 126 231 135
0.32423599 -2.04400590 0.01852739 126 231 135
0.31415885 -2.04428480 0.03695560 126 231 135
0.30408170 -2.04456369 0.05538381 126 231 135
0.29400456 -2.04484259 0.07381202 126 231 135
0.28392742 -2.04512148 0.09224023 126 231 135
0.27385027 -2.04540037 0.11066844 126 231 135
0.26377313 -2.04567927 0.12909665 126 231 135
0.25369598 -2.04595816 0.14752485 126 231 135
0.24361884 -2.04623706 0.16595306 126 231 135
0.23354169 -2.04651595 0.18438127 126 231 135
0.22346455 -2.04679484 0.20280948 126 231 135
0.21338740 -2.04707374 0.22123769 126 231 135
0.20331026 -2.04735263 0.23966590 126 231 135
0.19323312 -2.04763153 0.25809410 126 231 135
0.18315597 -2.04791042 0.27652231 126 231 135
0.17307883 -2.04818932 0.29495052 126 231 135
0.40485315 -2.04177475 -0.12889827 126 231 135
0.41267410 -2.04205014 -0.10940513 126 231 135
0.42049504 -2.04232554 -0.08991200 126 231 135
0.42831599 -2.04260093 -0.07041886 126 231 135
0.43613694 -2.04287632 -0.05092572 126 231 135
0.44395788 -2.04315171 -0.03143258 126 231 135
0.45177883 -2.04342711 -0.01193944 126 231 135
0.45959978 -2.04370250 0.00755369 126 231 135
0.46742072 -2.04397789 0.02704683 126 231 135
0.47524167 -2.04425329 0.04653997 126 231 135
0.48306262 -2.04452868 0.06603311 126 231 135
0.49088357 -2.04480407 0.08552625 126 231 135
0.49870451 -2.04507946 0.10501938 126 231 135
0.50652546 -2.04535486 0.12451252 126 231 135
0.51434641 -2.04563025 0.14400566 126 231 135
0.52216735 -2.04590564 0.16349880 126 231 135
0.52998830 -2.04618104 0.18299194 126 231 135
0.53780925 -2.04645643 0.20248508 126 231 135
0.54563019 -2.04673182 0.22197821 126 231 135
0.55345114 -2.04700721 0.24147135 126 231 135
0.56127209 -2.04728261 0.26096449 126 231 135
0.56909304 -2.04755800 0.28045763 126 231 135
0.57691398 -2.04783339 0.29995077 126 231 135
0.58473493 -2.04810879 0.31944390 126 231 135
0.40485315 -2.04177475 -0.12889827 126 231 135
0.41290774 -2.03014472 -0.11337116 126 231 135
0.42096234 -2.01851468 -0.09784404 126 231 135
0.42901693 -2.00688465 -0.08231693 126 231 135
0.43707153 -1.99525461 -0.06678981 126 231 135
0.44512612 -1.98362458 -0.05126270 126 231 135
0.45318072 -1.97199455 -0.03573558 126 231 135
0.46123531 -1.96036451 -0.02020847 126 231 135
0.46928991 -1.94873448 -0.00468135 126 231 135
0.47734450 -1.93710444 0.01084576 126 231 135
0.48539910 -1.92547441 0.02637288 126 231 135
0.49345369 -1.91384437 0.04189999 126 231 135
0.50150829 -1.90221434 0.05742711 126 231 135
0.50956288 -1.89058431 0.07295422 126 231 135
0.51761748 -1.87895427 0.08848133 126 231 135
0.52567207 -1.86732424 0.10400845 126 231 135
0.53372667 -1.85569420 0.11953556 126 231 135
0.54178126 -1.84406417 0.13506268 126 231 135
0.54983586 -1.83243414 0.15058979 126 231 135
0.55789045 -1.82080410 0.16611691 126 231 135
0.56594505 -1.80917407 0.18164402 126 231 135
0.57399964 -1.79754403 0.19717114 126 231 135
0.58205424 -1.78591400 0.21269825 126 231 135
0.59010883 -1.77428397 0.22822537 126 231 135
0.40485315 -2.04177475 -0.12889827 126 231 135
0.39500965 -2.03014822 -0.11443609 126 231 135
0.38516616 -2.01852168 -0.09997390 126 231 135
0.37532266 -2.00689515 -0.08551172 126 231 135
0.36547916 -1.99526862 -0.07104953 126 231 135
0.35563567 -1.98364209 -0.05658735 126 231 135
0.34579217 -1.97201555 -0.04212516 126 231 135
0.33594867 -1.96038902 -0.02766298 126 231 135
0.32610518 -1.94876249 -0.01320079 126 231 135
0.31626168 -1.93713595 0.00126139 126 231 135
0.30641818 -1.92550942 0.01572358 126 231 135
0.29657469 -1.91388289 0.03018576 126 231 135
0.28673119 -1.90225636 0.04464795 126 231 135
0.27688769 -1.89062982 0.05911013 126 231 135
0.26704420 -1.87900329 0.07357232 126 231 135
0.25720070 -1.86737676 0.08803450 126 231 135
0.24735720 -1.85575022 0.10249669 126 231 135
0.23751371 -1.84412369 0.11695887 126 231 135
0.22767021 -1.83249716 0.13142106 126 231 135
0.21782671 -1.82087063 0.14588324 126 231 135
0.20798322 -1.80924409 0.16034543 126 231 135
0.19813972 -1.79761756 0.17480761 126 231 135
0.18829623 -1.78599103 0.18926980 126 231 135
0.17845273 -1.77436449 0.20373198 126 231 135
0.17307883 -2.04818932 0.29495052 126 231 135
0.19097692 -2.04818581 0.29601545 126 231 135
0.20887501 -2.04818231 0.29708038 126 231 135
0.22677310 -2.04817881 0.29814531 126 231 135
0.24467119 -2.04817531 0.29921024 126 231 135
0.26256928 -2.04817181 0.30027517 126 231 135
0.28046738 -2.04816831 0.30134010 126 231 135
0.29836547 -2.04816481 0.30240503 126 231 135
0.31626356 -2.04816131 0.30346996 126 231 135
0.33416165 -2.04815780 0.30453489 126 231 135
0.35205974 -2.04815430 0.30559982 126 231 135
0.36995783 -2.04815080 0.30666475 126 231 135
0.38785592 -2.04814730 0.30772968 126 231 135
0.40575402 -2.04814380 0.30879461 126 231 135
0.42365211 -2.04814030 0.30985954 126 231 135
0.44155020 -2.04813680 0.31092447 126 231 135
0.45944829 -2.04813330 0.31198940 126 231 135
0.47734638 -2.04812979 0.31305433 126 231 135
0.49524447 -2.04812629 0.31411926 126 231 135
0.51314256 -2.04812279 0.31518418 126 231 135
0.53104066 -2.04811929 0.31624911 126 231 135
0.54893875 -2.04811579 0.31731404 126 231 135
0.56683684 -2.04811229 0.31837897 126 231 135
0.58473493 -2.04810879 0.31944390 126 231 135
0.58473493 -2.04810879 0.31944390 126 231 135
0.58496858 -2.03620336 0.31547788 126 231 135
0.58520223 -2.02429793 0.31151186 126 231 135
0.58543587 -2.01239251 0.30754583 126 231 135
0.58566952 -2.00048708 0.30357981 126 231 135
0.58590317 -1.98858165 0.29961379 126 231 135
0.58613682 -1.97667622 0.29564776 126 231 135
0.58637046 -1.96477080 0.29168174 126 231 135
0.58660411 -1.95286537 0.28771572 126 231 135
0.58683776 -1.94095994 0.28374969 126 231 135
0.58707141 -1.92905452 0.27978367 126 231 135
0.58730506 -1.91714909 0.27581765 126 231 135
0.58753870 -1.90524366 0.27185162 126 231 135
0.58777235 -1.89333824 0.26788560 126 231 135
0.58800600 -1.88143281 0.26391958 126 231 135
0.58823965 -1.86952738 0.25995355 126 231 135
0.58847330 -1.85762195 0.25598753 126 231 135
0.58870694 -1.84571653 0.25202151 126 231 135
0.58894059 -1.83381110 0.24805548 126 231 135
0.58917424 -1.82190567 0.24408946 126 231 135
0.58940789 -1.81000025 0.24012344 126 231 135
0.58964154 -1.79809482 0.23615741 126 231 135
0.58987518 -1.78618939 0.23219139 126 231 135
0.59010883 -1.77428397 0.22822537 126 231 135
0.59010883 -1.77428397 0.22822537 126 231 135
0.57221074 -1.77428747 0.22716044 126 231 135
0.55431265 -1.77429097 0.22609551 126 231 135
0.53641456 -1.77429447 0.22503058 126 231 135
0.51851647 -1.77429797 0.22396565 126 231 135
0.50061837 -1.77430147 0.22290072 126 231 135
0.48272028 -1.77430497 0.22183579 126 231 135
0.46482219 -1.77430847 0.22077086 126 231 135
0.44692410 -1.77431198 0.21970593 126 231 135
0.42902601 -1.77431548 0.21864100 126 231 135
0.41112792 -1.77431898 0.21757607 126 231 135
0.39322983 -1.77432248 0.21651114 126 231 135
0.37533173 -1.77432598 0.21544621 126 231 135
0.35743364 -1.77432948 0.21438128 126 231 135
0.33953555 -1.77433298 0.21331635 126 231 135
0.32163746 -1.77433648 0.21225142 126 231 135
0.30373937 -1.77433999 0.21118649 126 231 135
0.28584128 -1.77434349 0.21012156 126 231 135
0.26794319 -1.77434699 0.20905663 126 231 135
0.25004509 -1.77435049 0.20799170 126 231 135
0.23214700 -1.77435399 0.20692677 126 231 135
0.21424891 -1.77435749 0.20586184 126 231 135
0.19635082 -1.77436099 0.20479691 126 231 135
0.17845273 -1.77436449 0.20373198 126 231 135
0.17845273 -1.77436449 0.20373198 126 231 135
0.17821908 -1.78626992 0.20769801 126 231 135
0.17798543 -1.79817535 0.21166403 126 231 135
0.17775179 -1.81008078 0.21563005 126 231 135
0.17751814 -1.82198620 0.21959608 126 231 135
0.17728449 -1.83389163 0.22356210 126 231 135
0.17705084 -1.84579706 0.22752812 126 231 135
0.17681719 -1.85770248 0.23149415 126 231 135
0.17658355 -1.86960791 0.23546017 126 231 135
0.17634990 -1.88151334 0.23942619 126 231 135
0.17611625 -1.89341876 0.24339222 126 231 135
0.17588260 -1.90532419 0.24735824 126 231 135
0.17564895 -1.91722962 0.25132426 126 231 135
0.17541531 -1.92913505 0.25529029 126 231 135
0.17518166 -1.94104047 0.25925631 126 231 135
0.17494801 -1.95294590 0.26322233 126 231 135
0.17471436 -1.96485133 0.26718836 126 231 135
0.17448071 -1.97675675 0.27115438 126 231 135
0.17424707 -1.98866218 0.27512040 126 231 135
0.17401342 -2.00056761 0.27908643 126 231 135
0.17377977 -2.01247303 0.28305245 126 231 135
0.17354612 -2.02437846 0.28701847 126 231 135
0.17331247 -2.03628389 0.29098450 126 231 135
0.17307883 -2.04818932 0.29495052 126 231 135
0.00744578 1.00611027 0.45103699 210 168 255
-0.00158152 0.99696029 0.46765058 210 168 255
-0.01060882 0.98781032 0.48426417 210 168 255
-0.01963612 0.97866034 0.50087776 210 168 255
-0.02866341 0.96951037 0.51749135 210 168 255
-0.03769071 0.96036039 0.53410494 210 168 255
-0.04671801 0.95121042 0.55071853 210 168 255
-0.05574530 0.94206044 0.56733212 210 168 255
-0.06477260 0.93291047 0.58394570 210 168 255
-0.07379990 0.92376049 0.60055929 210 168 255
-0.08282720 0.91461052 0.61717288 210 168 255
-0.09185449 0.90546054 0.63378647 210 168 255
-0.10088179 0.89631056 0.65040006 210 168 255
-0.10990909 0.88716059 0.66701365 210 168 255
-0.11893638 0.87801061 0.68362724 210 168 255
-0.12796368 0.86886064 0.70024083 210 168 255
-0.13699098 0.85971066 0.71685442 210 168 255
-0.14601828 0.85056069 0.73346801 210 168 255
-0.15504557 0.84141071 0.75008160 210 168 255
-0.16407287 0.83226074 0.76669518 210 168 255
-0.17310017 0.82311076 0.78330877 210 168 255
-0.18212746 0.81396079 0.79992236 210 168 255
-0.19115476 0.80481081 0.81653595 210 168 255
-0.20018206 0.79566084 0.83314954 210 168 255
0.00744578 1.00611027 0.45103699 210 168 255
0.01634812 0.99691546 0.46769320 210 168 255
0.02525046 0.98772064 0.48434940 210 168 255
0.03415280 0.97852583 0.50100561 210 168 255
0.04305514 0.96933102 0.51766182 210 168 255
0.05195748 0.96013620 0.53431802 210 168 255
0.06085982 0.95094139 0.55097423 210 168 255
0.06976217 0.94174658 0.56763044 210 168 255
0.07866451 0.93255177 0.58428665 210 168 255
0.08756685 0.92335695 0.60094285 210 168 255
0.09646919 0.91416214 0.61759906 210 168 255
0.10537153 0.90496733 0.63425527 210 168 255
0.11427387 0.89577252 0.65091147 210 168 255
0.12317621 0.88657770 0.66756768 210 168 255
0.13207855 0.87738289 0.68422389 210 168 255
0.14098090 0.86818808 0.70088009 210 168 255
0.14988324 0.85899327 0.71753630 210 168 255
0.15878558 0.84979845 0.73419251 210 168 255
0.16768792 0.84060364 0.75084871 210 168 255
0.17659026 0.83140883 0.76750492 210 168 255
0.18549260 0.82221401 0.78416113 210 168 255
0.19439494 0.81301920 0.80081733 210 168 255
0.20329729 0.80382439 0.81747354 210 168 255
0.21219963 0.79462958 0.83412975 210 168 255
0.00744578 1.00611027 0.45103699 210 168 255
0.01637410 1.00929113 0.46978246 210 168 255
0.02530242 1.01247200 0.48852793 210 168 255
0.03423075 1.01565287 0.50727340 210 168 255
0.04315907 1.01883373 0.52601887 210 168 255
0.05208739 1.02201460 0.54476434 210 168 255
0.06101572 1.02519547 0.56350981 210 168 255
0.06994404 1.02837633 0.58225527 210 168 255
0.07887237 1.03155720 0.60100074 210 168 255
0.08780069 1.03473807 0.61974621 210 168 255
0.09672901 1.03791893 0.63849168 210 168 255
0.10565734 1.04109980 0.65723715 210 168 255
0.11458566 1.04428066 0.67598262 210 168 255
0.12351398 1.04746153 0.69472809 210 168 255
0.13244231 1.05064240 0.71347356 210 168 255
0.14137063 1.05382326 0.73221903 210 168 255
0.15029895 1.05700413 0.75096450 210 168 255
0.15922728 1.06018500 0.76970997 210 168 255
0.16815560 1.06336586 0.78845543 210 168 255
0.17708393 1.06654673 0.80720090 210 168 255
0.18601225 1.06972760 0.82594637 210 168 255
0.19494057 1.07290846 0.84469184 210 168 255
0.20386890 1.07608933 0.86343731 210 168 255
0.21279722 1.07927020 0.88218278 210 168 255
0.00744578 1.00611027 0.45103699 210 168 255
-0.00155554 1.00933597 0.46973984 210 168 255
-0.01055685 1.01256168 0.48844269 210 168 255
-0.01955817 1.01578738 0.50714555 210 168 255
-0.02855948 1.01901308 0.52584840 210 168 255
-0.03756080 1.02223879 0.54455125 210 168 255
-0.04656211 1.02546449 0.56325410 210 168 255
-0.05556343 1.02869019 0.58195695 210 168 255
-0.06456474 1.03191590 0.60065980 210 168 255
-0.07356606 1.03514160 0.61936265 210 168 255
-0.08256737 1.03836731 0.63806551 210 168 255
-0.09156869 1.04159301 0.65676836 210 168 255
-0.10057000 1.04481871 0.67547121 210 168 255
-0.10957132 1.04804442 0.69417406 210 168 255
-0.11857263 1.05127012 0.71287691 210 168 255
-0.12757395 1.05449582 0.73157976 210 168 255
-0.13657526 1.05772153 0.75028261 210 168 255
-0.14557658 1.06094723 0.76898547 210 168 255
-0.15457789 1.06417294 0.78768832 210 168 255
-0.16357921 1.06739864 0.80639117 210 168 255
-0.17258052 1.07062434 0.82509402 210 168 255
-0.18158184 1.07385005 0.84379687 210 168 255
-0.19058315 1.07707575 0.86249972 210 168 255
-0.19958447 1.08030145 0.88120257 210 168 255
-0.20018206 0.79566084 0.83314954 210 168 255
-0.18225242 0.79561600 0.83319216 210 168 255
-0.16432278 0.79557116 0.83323478 210 168 255
-0.14639314 0.79552632 0.83327739 210 168 255
-0.12846350 0.79548149 0.83332001 210 168 255
-0.11053387 0.79543665 0.83336263 210 168 255
-0.09260423 0.79539181 0.83340525 210 168 255
-0.07467459 0.79534697 0.83344786 210 168 255
-0.05674495 0.79530214 0.83349048 210 168 255
-0.03881531 0.79525730 0.83353310 210 168 255
-0.02088567 0.79521246 0.83357572 210 168 255
-0.00295603 0.79516763 0.83361834 210 168 255
0.01497360 0.79512279 0.83366095 210 168 255
0.03290324 0.79507795 0.83370357 210 168 255
0.05083288 0.79503311 0.83374619 210 168 255
0.06876252 0.79498828 0.83378881 210 168 255
0.08669216 0.79494344 0.83383142 210 168 255
0.10462180 0.79489860 0.83387404 210 168 255
0.12255143 0.79485376 0.83391666 210 168 255
0.14048107 0.79480893 0.83395928 210 168 255
0.15841071 0.79476409 0.83400189 210 168 255
0.17634035 0.79471925 0.83404451 210 168 255
0.19426999 0.79467441 0.83408713 210 168 255
0.21219963 0.79462958 0.83412975 210 168 255
0.21219963 0.79462958 0.83412975 210 168 255
0.21222561 0.80700526 0.83621901 210 168 255
0.21225159 0.81938093 0.83830827 210 168 255
0.21227757 0.83175661 0.84039753 210 168 255
0.21230356 0.84413229 0.84248680 210 168 255
0.21232954 0.85650797 0.84457606 210 168 255
0.21235552 0.86888365 0.84666532 210 168 255
0.21238150 0.88125933 0.84875458 210 168 255
0.21240749 0.89363501 0.85084385 210 168 255
0.21243347 0.90601069 0.85293311 210 168 255
0.21245945 0.91838637 0.85502237 210 168 255
0.21248543 0.93076205 0.85711163 210 168 255
0.21251141 0.94313773 0.85920089 210 168 255
0.21253740 0.95551340 0.86129016 210 168 255
0.21256338 0.96788908 0.86337942 210 168 255
0.21258936 0.98026476 0.86546868 210 168 255
0.21261534 0.99264044 0.86755794 210 168 255
0.21264133 1.00501612 0.86964721 210 168 255
0.21266731 1.01739180 0.87173647 210 168 255
0.21269329 1.02976748 0.87382573 210 168 255
0.21271927 1.04214316 0.87591499 210 168 255
0.21274526 1.05451884 0.87800426 210 168 255
0.21277124 1.06689452 0.88009352 210 168 255
0.21279722 1.07927020 0.88218278 210 168 255
0.21279722 1.07927020 0.88218278 210 168 255
0.19486758 1.07931503 0.88214016 210 168 255
0.17693794 1.07935987 0.88209754 210 168 255
0.15900830 1.07940471 0.88205493 210 168 255
0.14107867 1.07944954 0.88201231 210 168 255
0.12314903 1.07949438 0.88196969 210 168 255
0.10521939 1.07953922 0.88192707 210 168 255
0.08728975 1.07958406 0.88188446 210 168 255
0.06936011 1.07962889 0.88184184 210 168 255
0.05143047 1.07967373 0.88179922 210 168 255
0.03350084 1.07971857 0.88175660 210 168 255
0.01557120 1.07976341 0.88171399 210 168 255
-0.00235844 1.07980824 0.88167137 210 168 255
-0.02028808 1.07985308 0.88162875 210 168 255
-0.03821772 1.07989792 0.88158613 210 168 255
-0.05614736 1.07994276 0.88154352 210 168 255
-0.07407700 1.07998759 0.88150090 210 168 255
-0.09200663 1.08003243 0.88145828 210 168 255
-0.10993627 1.08007727 0.88141566 210 168 255
-0.12786591 1.08012210 0.88137304 210 168 255
-0.14579555 1.08016694 0.88133043 210 168 255
-0.16372519 1.08021178 0.88128781 210 168 255
-0.18165483 1.08025662 0.88124519 210 168 255
-0.19958447 1.08030145 0.88120257 210 168 255
-0.19958447 1.08030145 0.88120257 210 168 255
-0.19961045 1.06792578 0.87911331 210 168 255
-0.19963643 1.05555010 0.87702405 210 168 255
-0.19966241 1.04317442 0.87493479 210 168 255
-0.19968839 1.03079874 0.87284553 210 168 255
-0.19971438 1.01842306 0.87075626 210 168 255
-0.19974036 1.00604738 0.86866700 210 168 255
-0.19976634 0.99367170 0.86657774 210 168 255
-0.19979232 0.98129602 0.86448848 210 168 255
-0.19981831 0.96892034 0.86239921 210 168 255
-0.19984429 0.95654466 0.86030995 210 168 255
-0.19987027 0.94416898 0.85822069 210 168 255
-0.19989625 0.93179331 0.85613143 210 168 255
-0.19992224 0.91941763 0.85404216 210 168 255
-0.19994822 0.90704195 0.85195290 210 168 255
-0.19997420 0.89466627 0.84986364 210 168 255
-0.20000018 0.88229059 0.84777438 210 168 255
-0.20002616 0.86991491 0.84568512 210 168 255
-0.20005215 0.85753923 0.84359585 210 168 255
-0.20007813 0.84516355 0.84150659 210 168 255
-0.20010411 0.83278787 0.83941733 210 168 255
-0.20013009 0.82041219 0.83732807 210 168 255
-0.20015608 0.80803652 0.83523880 210 168 255
-0.20018206 0.79566084 0.83314954 210 168 255
0.43200721 -2.74327519 -0.10059800 255 166 87
0.42188468 -2.74172443 -0.08225801 255 166 87
0.41176216 -2.74017367 -0.06391802 255 166 87
0.40163964 -2.73862291 -0.04557803 255 166 87
0.39151712 -2.73707215 -0.02723804 255 166 87
0.38139460 -2.73552139 -0.00889805 255 166 87
0.37127208 -2.73397063 0.00944193 255 166 87
0.36114956 -2.73241987 0.02778192 255 166 87
0.35102704 -2.73086911 0.04612191 255 166 87
0.34090452 -2.72931835 0.06446190 255 166 87
0.33078200 -2.72776759 0.08280189 255 166 87
0.32065948 -2.72621683 0.10114188 255 166 87
0.31053695 -2.72466607 0.11948187 255 166 87
0.30041443 -2.72311531 0.13782186 255 166 87
0.29029191 -2.72156454 0.15616185 255 166 87
0.28016939 -2.72001378 0.17450184 255 166 87
0.27004687 -2.71846302 0.19284182 255 166 87
0.25992435 -2.71691226 0.21118181 255 166 87
0.24980183 -2.71536150 0.22952180 255 166 87
0.23967931 -2.71381074 0.24786179 255 166 87
0.22955679 -2.71225998 0.26620178 255 166 87
0.21943427 -2.71070922 0.28454177 255 166 87
0.20931175 -2.70915846 0.30288176 255 166 87
0.19918922 -2.70760770 0.32122175 255 166 87
0.43200721 -2.74327519 -0.10059800 255 166 87
0.43977179 -2.74218434 -0.08111091 255 166 87
0.44753637 -2.74109348 -0.06162381 255 166 87
0.45530095 -2.74000262 -0.04213672 255 166 87
0.46306553 -2.73891176 -0.02264963 255 166 87
0.47083011 -2.73782091 -0.00316253 255 166 87
0.47859469 -2.73673005 0.01632456 255 166 87
0.48635927 -2.73563919 0.03581165 255 166 87
0.49412385 -2.73454834 0.05529875 255 166 87
0.50188843 -2.73345748 0.07478584 255 166 87
0.50965301 -2.73236662 0.09427293 255 166 87
0.51741759 -2.73127576 0.11376003 255 166 87
0.52518217 -2.73018491 0.13324712 255 166 87
0.53294675 -2.72909405 0.15273421 255 166 87
0.54071134 -2.72800319 0.17222131 255 166 87
0.54847592 -2.72691233 0.19170840 255 166 87
0.55624050 -2.72582148 0.21119549 255 166 87
0.56400508 -2.72473062 0.23068259 255 166 87
0.57176966 -2.72363976 0.25016968 255 166 87
0.57953424 -2.72254890 0.26965677 255 166 87
0.58729882 -2.72145805 0.28914386 255 166 87
0.59506340 -2.72036719 0.30863096 255 166 87
0.60282798 -2.71927633 0.32811805 255 166 87
0.61059256 -2.71818547 0.34760514 255 166 87
0.43200721 -2.74327519 -0.10059800 255 166 87
0.44038434 -2.73065900 -0.08604188 255 166 87
0.44876148 -2.71804280 -0.07148576 255 166 87
0.45713862 -2.70542661 -0.05692964 255 166 87
0.46551576 -2.69281041 -0.04237352 255 166 87
0.47389290 -2.68019422 -0.02781739 255 166 87
0.48227004 -2.66757802 -0.01326127 255 166 87
0.49064717 -2.65496183 0.00129485 255 166 87
0.49902431 -2.64234563 0.01585097 255 166 87
0.50740145 -2.62972944 0.03040709 255 166 87
0.51577859 -2.61711324 0.04496321 255 166 87
0.52415573 -2.60449705 0.05951933 255 166 87
0.53253286 -2.59188085 0.07407545 255 166 87
0.54091000 -2.57926466 0.08863157 255 166 87
0.54928714 -2.56664846 0.10318769 255 166 87
0.55766428 -2.55403227 0.11774382 255 166 87
0.56604142 -2.54141607 0.13229994 255 166 87
0.57441856 -2.52879988 0.14685606 255 166 87
0.58279569 -2.51618368 0.16141218 255 166 87
0.59117283 -2.50356749 0.17596830 255 166 87
0.59954997 -2.49095129 0.19052442 255 166 87
0.60792711 -2.47833510 0.20508054 255 166 87
0.61630425 -2.46571890 0.21963666 255 166 87
0.62468139 -2.45310270 0.23419278 255 166 87
0.43200721 -2.74327519 -0.10059800 255 166 87
0.42249724 -2.73019910 -0.08718898 255 166 87
0.41298728 -2.71712300 -0.07377997 255 166 87
0.40347732 -2.70404690 -0.06037095 255 166 87
0.39396735 -2.69097080 -0.04696193 255 166 87
0.38445739 -2.67789470 -0.03355292 255 166 87
0.37494743 -2.66481860 -0.02014390 255 166 87
0.36543746 -2.65174251 -0.00673488 255 166 87
0.35592750 -2.63866641 0.00667413 255 166 87
0.34641754 -2.62559031 0.02008315 255 166 87
0.33690757 -2.61251421 0.03349217 255 166 87
0.32739761 -2.59943811 0.04690119 255 166 87
0.31788765 -2.58636201 0.06031020 255 166 87
0.30837768 -2.57328591 0.07371922 255 166 87
0.29886772 -2.56020982 0.08712824 255 166 87
0.28935776 -2.54713372 0.10053725 255 166 87
0.27984779 -2.53405762 0.11394627 255 166 87
0.27033783 -2.52098152 0.12735529 255 166 87
0.26082787 -2.50790542 0.14076430 255 166 87
0.25131790 -2.49482932 0.15417332 255 166 87
0.24180794 -2.48175323 0.16758234 255 166 87
0.23229798 -2.46867713 0.18099135 255 166 87
0.22278801 -2.45560103 0.19440037 255 166 87
0.21327805 -2.44252493 0.20780939 255 166 87
0.19918922 -2.70760770 0.32122175 255 166 87
0.21707633 -2.70806760 0.32236885 255 166 87
0.23496343 -2.70852750 0.32351596 255 166 87
0.25285053 -2.70898741 0.32466306 255 166 87
0.27073763 -2.70944731 0.32581016 255 166 87
0.28862473 -2.70990721 0.32695727 255 166 87
0.30651183 -2.71036712 0.32810437 255 166 87
0.32439894 -2.71082702 0.32925148 255 166 87
0.34228604 -2.71128692 0.33039858 255 166 87
0.36017314 -2.71174683 0.33154569 255 166 87
0.37806024 -2.71220673 0.33269279 255 166 87
0.39594734 -2.71266663 0.33383989 255 166 87
0.41383444 -2.71312654 0.33498700 255 166 87
0.43172155 -2.71358644 0.33613410 255 166 87
0.44960865 -2.71404634 0.33728121 255 166 87
0.46749575 -2.71450625 0.33842831 255 166 87
0.48538285 -2.71496615 0.33957542 255 166 87
0.50326995 -2.71542605 0.34072252 255 166 87
0.52115705 -2.71588596 0.34186962 255 166 87
0.53904416 -2.71634586 0.34301673 255 166 87
0.55693126 -2.71680576 0.34416383 255 166 87
0.57481836 -2.71726567 0.34531094 255 166 87
0.59270546 -2.71772557 0.34645804 255 166 87
0.61059256 -2.71818547 0.34760514 255 166 87
0.61059256 -2.71818547 0.34760514 255 166 87
0.61120512 -2.70666014 0.34267417 255 166 87
0.61181768 -2.69513480 0.33774320 255 166 87
0.61243023 -2.68360946 0.33281223 255 166 87
0.61304279 -2.67208412 0.32788126 255 166 87
0.61365535 -2.66055878 0.32295028 255 166 87
0.61426791 -2.64903345 0.31801931 255 166 87
0.61488047 -2.63750811 0.31308834 255 166 87
0.61549302 -2.62598277 0.30815737 255 166 87
0.61610558 -2.61445743 0.30322639 255 166 87
0.61671814 -2.60293210 0.29829542 255 166 87
0.61733070 -2.59140676 0.29336445 255 166 87
0.61794325 -2.57988142 0.28843348 255 166 87
0.61855581 -2.56835608 0.28350251 255 166 87
0.61916837 -2.55683074 0.27857153 255 166 87
0.61978093 -2.54530541 0.27364056 255 166 87
0.62039348 -2.53378007 0.26870959 255 166 87
0.62100604 -2.52225473 0.26377862 255 166 87
0.62161860 -2.51072939 0.25884764 255 166 87
0.62223116 -2.49920406 0.25391667 255 166 87
0.62284371 -2.48767872 0.24898570 255 166 87
0.62345627 -2.47615338 0.24405473 255 166 87
0.62406883 -2.46462804 0.23912376 255 166 87
0.62468139 -2.45310270 0.23419278 255 166 87
