ply
format ascii 1.0
element vertex 245
property float x
property float y
property float z
property uchar red
property uchar green
property uchar blue
end_header
-0.30359634 0.28440563 6.61287333 165 159 144
-0.00426752 0.87142033 6.92914498 209 194 171
0.18075173 0.37943881 6.81758886 58 67 76
0.37026155 0.33480767 6.92102403 162 153 141
-0.17975536 0.46329181 6.70097814 44 58 69
-0.27044843 1.49769990 7.13905364 100 117 125
-0.10182855 0.45185608 6.72094864 149 162 170
0.16215336 1.76583103 7.36736576 139 99 74
-0.00186765 1.01538606 6.98168892 178 169 152
-0.11146771 1.27695728 7.05508782 191 183 164
-0.99154765 1.01941860 7.20915315 183 183 173
0.05211052 0.86611599 6.94073489 213 207 190
-0.81975640 0.12781418 6.58372507 125 149 167
0.39971235 0.13090773 6.87755851 107 115 125
0.24078272 0.85702838 7.00085084 189 174 153
3.26160571 -2.54363608 14.74807844 63 60 57
-0.54879237 0.72933372 6.79804293 108 128 140
0.56057734 1.01520924 7.31777510 102 115 124
0.30242945 -0.44550539 6.55328500 142 126 113
0.35104337 0.92238464 7.11244320 178 165 148
-0.42760580 0.10988498 6.49953340 151 169 181
-0.10623022 0.04203592 6.57201430 69 82 93
-0.29370772 0.51206338 6.68064169 228 222 205
0.04415686 0.84606310 6.94908014 45 46 40
-0.48324797 -0.26794173 6.31529903 170 166 158
-0.01467587 -0.36124460 6.39312385 66 65 70
0.08883984 -0.38006345 6.43439514 133 123 111
-0.35857222 -0.27872943 6.32989461 144 137 124
-0.25360670 -0.10652525 6.44275154 49 59 67
0.19975594 -0.01009607 6.66719703 170 160 148
0.08621785 0.01864420 6.63072846 139 132 119
0.60861202 2.17908206 6.31163438 157 142 123
-0.80742305 -0.45673099 6.30543759 121 135 135
-0.43162791 -0.27408953 6.31457785 143 139 130
-0.00660926 0.84929589 6.93726318 207 192 169
0.61960012 2.11265192 6.29845549 214 198 172
-0.46466607 -0.29100276 6.31009835 59 72 81
-1.17164996 -0.29947390 6.64167586 198 203 198
0.06345781 0.70190016 6.90358871 250 231 215
-0.05102452 -0.06306123 6.54182675 43 59 72
0.24741343 -0.03718631 6.69393575 55 58 63
-0.08632341 -0.06287060 6.52684326 48 62 75
0.57443328 0.93994640 7.31218874 10 17 23
0.00897932 0.82690728 6.93283034 42 43 37
-0.00608363 0.82767066 6.92225242 203 193 176
0.53506070 0.99983125 7.28029794 15 23 26
-0.23098999 -0.11247549 6.44700902 45 55 61
-0.16637810 -0.03376778 6.50407190 42 58 71
0.38583503 0.74701857 7.06234420 171 159 142
-0.24216042 0.34643430 6.64091094 33 49 62
-0.03543415 -0.35611167 6.38652242 56 60 64
-0.20142249 0.09433231 6.53614774 192 187 173
-0.08632341 -0.06287060 6.52684326 48 62 75
-0.43162791 -0.27408953 6.31457785 143 139 130
0.40162302 0.73121421 7.07218979 172 161 147
-0.27674989 0.06095643 6.50614139 36 52 65
-0.36852541 -0.01791441 6.45208468 55 71 84
-0.63001436 0.33515350 6.61946349 186 195 192
-0.22840139 0.06853247 6.52890614 43 57 67
0.75656197 1.38625285 7.81860774 54 47 40
0.04208115 -0.18452899 6.53968502 40 46 51
-0.16637810 -0.03376778 6.50407190 42 58 71
-0.12615496 -0.33608233 6.36037965 61 64 67
0.54346700 0.24882475 7.07017155 183 180 173
0.12722426 0.18959570 6.71417790 154 147 132
-0.04941803 -0.16174203 6.51178829 44 52 58
-0.85320452 -0.43873613 6.32553442 101 123 134
0.60846897 2.19350892 6.31099568 197 186 169
-0.13161061 -0.51472931 6.22805394 181 179 163
-0.01512121 0.92298506 6.92750486 200 188 166
-0.59094461 1.29394078 7.10774486 185 185 173
0.73720994 2.15578997 6.33321436 199 188 167
0.04172634 0.72101389 6.89963941 231 255 255
0.08158611 1.80165228 7.36955278 137 102 80
-0.44799475 0.12191304 6.51219789 52 69 78
-0.05025917 0.77559245 6.89042610 115 129 138
0.09119016 -0.56756933 6.31605018 90 98 104
0.25460088 0.77527193 6.98866188 167 160 142
0.49907458 0.27330052 7.02262448 149 143 135
-0.99753285 0.32056159 6.76828649 93 108 113
-0.00626731 -0.09256391 6.55400427 46 62 74
0.04272353 0.03288026 6.60741313 205 198 184
-0.60256004 -0.24373906 6.35310824 185 185 173
0.02975140 -0.10949860 6.56156853 49 65 78
0.38352365 1.12442174 7.22294210 86 97 103
0.04394059 0.31501048 6.72020415 39 54 66
0.23312734 0.17389451 6.77378867 44 52 59
-0.12666465 -0.13134756 6.48864125 51 61 70
-0.28250426 0.50361294 6.68670603 214 214 205
-0.12666465 -0.13134756 6.48864125 51 61 70
0.01382105 -0.03437595 6.57299935 47 61 72
-0.22228294 0.29170398 6.62215372 44 56 62
0.47105554 0.91535876 7.19052091 112 121 130
0.05508681 -0.56401457 6.29230254 198 193 175
-0.62353602 0.72251139 6.82510060 89 104 115
0.56798318 0.42238905 7.15482503 176 174 168
0.27792973 1.53943376 7.35085737 91 101 107
-0.29465603 -0.01290709 6.47383921 40 58 70
0.12074550 -0.14863039 6.58124186 44 56 69
-0.93561389 0.32818778 6.73404729 99 113 120
0.11590472 -0.18332402 6.56744813 42 54 66
0.36063308 0.74411267 7.05034710 166 159 145
-0.36887603 0.31812256 6.60066462 60 73 81
-0.17621193 0.28132964 6.63292782 54 64 67
0.13734516 -0.20571262 6.56783267 71 81 89
-0.29099392 0.03683907 6.49116193 40 58 70
-0.45492732 0.52711254 6.68427143 205 206 200
-0.14258375 -0.03884383 6.51355961 40 56 69
0.32977141 -0.25949845 6.64729131 46 53 62
-0.14434179 -0.05682526 6.50776556 45 62 73
-0.36852541 -0.01791441 6.45208468 55 71 84
0.12230070 -0.21628264 6.56575171 118 113 105
0.11590472 -0.18332402 6.56744813 42 54 66
0.02571967 0.04108173 6.61384581 188 180 167
-0.34082420 -0.29358979 6.32387984 60 65 67
-0.39503408 -0.08066865 6.42148811 59 77 88
0.12074550 -0.14863039 6.58124186 44 56 69
0.68760417 2.36182821 6.44891504 196 186 174
-0.18594675 -0.12478775 6.46176325 47 55 59
-0.11714570 0.37014872 6.68730308 42 59 69
0.62634775 1.02965627 7.37187730 185 178 168
-0.15869054 0.31964573 6.65575687 48 62 73
-0.99862326 -0.27692199 6.50447688 102 118 124
-0.46864427 -0.00445600 6.44769041 52 73 86
-0.12166045 0.32139006 6.65882961 47 62 73
0.02975140 -0.10949860 6.56156853 49 65 78
0.08569559 -0.53697616 6.31759856 62 71 80
0.04394059 0.31501048 6.72020415 39 54 66
0.42594294 0.10173516 6.89595689 52 63 71
-0.29531917 0.30606799 6.61113812 69 79 80
0.06345781 0.70190016 6.90358871 250 231 215
-0.89877951 -0.06463409 6.53549381 113 135 144
-0.20727323 -0.11899215 6.45337527 48 55 60
-0.09127459 -0.11392453 6.50698511 40 57 67
0.04394059 0.31501048 6.72020415 39 54 66
-0.22606697 -0.04514658 6.48303361 48 65 75
0.07684442 -0.50641460 6.31921619 52 59 65
-0.11732169 -0.14360757 6.48582787 46 55 61
-0.85320452 -0.43873613 6.32553442 101 123 134
-0.68447571 -0.06331354 6.45057199 197 209 203
-0.03618472 1.95867125 7.33538142 41 47 47
0.83588824 2.13768015 6.35794187 151 138 119
0.32937533 0.58575583 6.96249494 50 59 68
-0.14872880 -0.12524480 6.48048776 48 59 68
-0.98081749 -0.27525756 6.48943252 100 119 130
0.52713363 -0.55048813 6.75846842 162 164 163
-0.01831850 0.76517540 6.89886899 11 16 20
-0.40382782 -0.35078241 6.26083750 46 62 75
0.04208115 -0.18452899 6.53968502 40 46 51
-0.29935595 -0.09784856 6.43336885 58 69 75
0.20801629 -0.18711775 6.60273416 44 56 70
0.53883095 0.65925813 7.18561923 182 178 173
0.24176758 -0.58434537 6.41405102 49 59 69
0.21627295 0.39465698 6.82667666 196 184 168
-0.07476479 -0.50769988 6.23916121 57 70 79
-0.42901115 -0.34962292 6.26754427 61 77 90
0.36746161 0.95739362 7.10181514 27 32 35
-0.24443941 -0.45907968 6.21133552 60 77 87
0.09005672 -0.09685515 6.58547484 45 59 69
0.25123066 -0.57780473 6.42257099 60 69 77
-0.07163695 -0.15595041 6.50479954 45 49 55
0.64187324 2.11812017 6.30652798 169 154 131
0.61374523 1.53036915 7.69170873 51 41 33
-0.00369300 -0.17325377 6.52695344 41 49 57
-0.35264179 -0.35640074 6.26046072 53 66 75
0.23230418 -0.57173166 6.41233886 55 64 72
-0.17621193 0.28132964 6.63292782 54 64 67
-0.15869054 0.31964573 6.65575687 48 62 73
0.14791753 -0.55923850 6.35301561 76 86 95
-0.65418794 -0.25573750 6.34127341 190 197 189
0.20951528 -0.58171496 6.38894399 55 65 74
-1.01863757 -0.28023082 6.51318367 97 116 126
-0.25598229 -0.45070954 6.22294950 67 84 94
-0.04895235 -0.49737536 6.25641793 57 67 76
0.01076516 1.77098260 7.41055106 159 142 126
0.11816155 -0.53869703 6.33971071 70 79 88
0.23312734 0.17389451 6.77378867 44 52 59
-0.92724393 -0.32986827 6.43086511 69 93 107
0.44657049 0.09333725 6.90950197 51 57 60
0.08569559 -0.53697616 6.31759856 62 71 80
-0.40073291 -0.28651635 6.32358684 52 61 68
-0.33985231 -0.38122489 6.24115212 57 70 79
0.57670855 -0.60135050 6.84207099 108 127 141
0.01971280 -0.17941790 6.53395031 42 51 59
-0.19895156 0.12789340 6.55521840 141 134 118
-0.03646795 -0.49093459 6.26126305 55 64 71
1.18782427 -0.55175622 8.54555943 194 193 190
0.59324310 0.61587858 7.25168903 175 179 179
1.48504839 2.48797186 7.43264332 58 59 54
0.58107584 2.18869928 6.30839269 150 137 120
0.59992297 0.83185315 7.28878780 11 18 22
-0.29099392 0.03683907 6.49116193 40 58 70
0.38648198 -0.16880873 6.73014514 52 61 70
-0.25890960 0.25057466 6.58667091 184 177 159
-0.26295053 -0.05439370 6.46276462 173 188 191
0.07672585 -0.52477999 6.31824600 53 62 69
0.50967283 0.47336726 7.08412903 60 74 88
-0.35185246 -0.38825094 6.24117948 64 78 88
0.37091506 -0.12962649 6.74175193 49 56 66
0.62036940 0.38132050 7.19572868 179 181 176
0.63104261 0.58982710 7.31872153 194 201 203
-0.42772968 -0.30191014 6.29112895 54 68 79
-0.35320704 -0.31216495 6.29611457 50 60 69
0.35712737 1.77310036 7.47521024 150 117 98
0.18903409 0.72808446 6.87019903 80 102 115
-0.40725159 0.24298318 6.55903624 201 195 179
-0.92724393 -0.32986827 6.43086511 69 93 107
-0.35175338 -0.32692681 6.28214025 53 66 75
-1.41963291 -0.41491315 6.91108161 99 116 126
-1.41037978 0.01329501 7.02881825 170 173 166
0.45718596 1.74621323 7.28618038 42 47 50
-0.19895156 0.12789340 6.55521840 141 134 118
0.53166854 1.77737571 6.93402013 165 169 168
0.44612145 -0.47122123 6.66781601 181 172 162
0.06102571 1.87323765 7.43444765 138 107 88
0.72400947 -0.26250073 7.28535066 178 187 194
0.81776313 1.78117283 6.74319102 111 104 94
-0.07797973 0.48636571 2.81066769 127 141 149
-0.26038057 0.25741518 2.66316552 90 107 117
-0.20167796 0.58730579 2.82122803 103 116 120
-0.28642463 0.45698385 2.75108058 191 186 167
-0.16556322 0.58472527 2.82728816 89 104 111
-0.20141286 0.57785364 2.81841297 189 181 158
0.02393637 0.30573499 2.80990511 103 112 115
0.08211225 0.48713365 2.91993442 124 134 133
-0.28383329 0.06020086 2.58314770 88 111 125
-0.26658568 0.40181969 2.72270170 197 193 173
-0.18269776 0.45850102 2.76245711 89 103 111
0.05093738 0.56582474 2.91788410 113 121 118
-0.06874558 0.42737717 2.79071138 127 138 143
-0.44460292 -0.08192275 2.53501962 76 92 100
-0.26591986 -0.09623362 2.53240691 180 184 170
0.03791818 0.57159684 2.90918186 117 128 129
-0.17570415 0.17814299 2.64658088 200 198 177
0.27589356 -0.48013033 4.16795862 220 217 206
-0.06162900 0.00263463 2.63272512 182 176 149
-0.17684563 -0.10941115 2.54614344 210 210 188
0.37710494 -0.22270769 4.03833498 202 200 188
-0.20966611 0.49280229 2.77504745 144 159 166
0.07387907 0.27621331 2.85520807 216 199 168
-0.18614497 -0.00860287 2.57926989 162 156 134
-0.18090514 -1.89799458 4.83734949 173 225 254
-0.10405163 -1.95467342 4.84727188 94 120 147
0.22782715 0.74942446 3.03256668 106 116 118
0.16134100 0.54522620 2.95737014 135 161 162
