ply
format ascii 1.0
element vertex 1047
property float x
property float y
property float z
property uchar red
property uchar green
property uchar blue
end_header
1.76847291 -1.36051182 23.29991361 165 119 72
-2.26663633 -0.89012268 23.34757301 200 202 188
-5.91418514 2.84720304 23.07460508 185 186 173
-0.79990501 3.87920170 20.99858301 183 180 165
0.38422926 2.90979097 22.81003051 142 139 133
3.64560028 3.88781451 24.83199363 66 112 110
-2.90826329 1.67357546 23.81330713 209 203 189
2.80078673 5.75813336 22.90078031 186 216 211
-0.25375515 -1.22220241 20.39457574 129 156 172
1.30303580 -1.44949686 23.21733551 193 142 87
-1.29614530 -3.46358857 31.60719265 141 120 99
-1.91057206 -2.04639161 22.67789992 236 219 191
1.36093200 -1.34700209 23.12020661 167 122 77
-3.56348840 4.28869069 23.64303765 124 102 81
0.22402577 3.13010341 21.22609222 82 93 103
-1.29614530 -3.46358857 31.60719265 141 120 99
-1.49488885 2.46027915 22.08049663 196 204 191
-0.54785630 -0.12097527 16.23644563 194 211 203
-1.64202773 -2.47523006 24.12000127 245 235 215
-0.75830815 3.34830642 20.78511558 153 147 133
-0.78266851 -3.24858216 31.30416526 93 103 108
1.11493852 -1.52613513 23.15053712 146 93 38
-1.72228337 -1.96787837 23.37425359 184 134 76
-3.26199953 3.90481613 23.73658572 126 87 58
-3.80650074 3.81008596 23.82359098 146 105 75
3.67935472 4.60513861 24.11972608 175 197 187
-2.83811406 -3.26875805 30.07071619 83 80 75
-0.83353485 -2.54700243 24.66515885 232 218 192
3.59452378 4.30154951 27.14823153 48 116 119
3.78593918 -2.31529673 31.33577913 96 92 89
4.29873081 4.17604001 24.36820455 88 150 146
-5.21500760 5.08149792 23.22177904 121 130 131
3.59452378 4.30154951 27.14823153 48 116 119
0.07379961 -0.59810641 22.37009764 101 123 134
2.14694663 5.38035696 23.51236251 44 74 76
1.68696586 -1.42755936 23.30739325 152 101 47
2.27887600 5.74323426 21.46099310 38 42 43
-2.48493731 0.22272925 23.86174791 203 203 191
1.41918699 0.10294571 22.02322235 105 118 135
1.74567465 -1.04692872 21.87716209 101 111 122
-2.29305800 -0.71228682 22.63965555 208 211 198
1.42395590 4.79199692 22.99710901 52 63 72
-1.13030079 -1.81782824 22.30880361 182 129 72
0.85621752 2.30377972 22.32597378 48 50 52
2.26907998 2.15648309 22.79709127 72 76 85
-0.73182976 -0.15331037 22.00818519 195 208 194
0.92029381 2.30209027 22.33526853 46 49 52
-0.28675820 -0.61867441 21.86369532 198 214 203
0.35786245 -1.42116386 22.09239616 171 119 62
0.35786245 -1.42116386 22.09239616 171 119 62
3.90848141 4.63366331 24.34875770 68 144 147
-0.96856378 -0.78803937 21.99393638 184 194 187
-1.36248804 0.26803397 22.17831467 116 145 160
-1.06666668 0.34984738 22.11301065 113 138 151
-1.48236085 -0.36446888 22.19620638 205 218 209
2.98375338 5.68196877 22.58248799 104 192 197
-1.51545587 1.40594318 22.31719177 188 203 196
-3.32797905 3.71705595 24.25289085 24 23 17
0.10353525 -0.82317874 21.74652623 42 59 73
-1.53265988 1.37446337 22.30967873 95 124 140
-1.71724478 -1.02781784 22.22743222 121 146 159
-1.51916173 0.25040062 22.23584014 201 216 207
2.64592951 5.46963591 23.13365400 166 163 157
-1.20305068 -0.28320590 22.13390594 206 221 209
-3.44904263 4.04057986 23.78028470 160 123 96
0.78537792 -1.43417735 22.17485246 172 121 66
-1.45376681 1.42728318 22.29758430 201 215 204
3.07438526 4.36571601 24.61925345 132 136 135
-1.42304514 0.24827117 22.19482796 114 143 161
-2.03590034 1.73280063 22.61174947 119 136 139
-5.11472888 5.12554943 23.44786565 52 61 66
-3.63010310 3.91007450 23.88947227 175 134 106
-4.00756700 3.91829149 23.90420949 168 128 102
-1.73198822 1.33171777 22.38835385 191 205 203
0.33476774 -1.08470964 21.72255712 136 155 166
-1.96109348 4.05744211 22.90344059 85 123 144
-1.38157710 3.33930074 20.90090519 128 155 170
-1.53429499 0.81914943 22.25759223 116 142 155
1.66196999 5.96897341 23.14020115 109 110 110
-3.27883674 3.96333023 23.88181324 162 123 95
-6.60642031 -6.60395548 33.89822237 105 107 102
2.03198079 -1.60013460 23.25954993 169 125 80
-3.98598852 3.62619949 24.78888013 34 31 28
3.30640259 4.54268895 24.53380652 52 80 80
0.26291441 -1.55152598 22.45087168 150 98 41
-3.12279873 3.79872777 23.77599500 124 91 64
0.26291441 -1.55152598 22.45087168 150 98 41
-0.82336511 -2.58951452 25.00411710 226 210 187
0.73587632 3.60641306 22.50778289 88 97 106
-2.80748181 0.54530405 23.53237540 173 175 173
-6.36793437 4.13735657 22.88854306 156 167 159
-1.48468158 0.23427654 22.15500610 116 149 167
-1.63030271 -0.37357979 22.16017600 122 156 176
-6.27993659 2.97950578 23.26283147 153 152 147
-1.37018318 -0.93281149 22.01891781 115 147 166
-1.88169863 1.83454732 22.48154266 114 142 159
1.21333546 -1.04654699 21.81062594 102 115 124
-1.76410108 0.72122155 22.28380803 190 203 194
1.02893932 1.21094425 22.19123619 68 68 70
2.53461374 5.87007665 22.91422525 92 141 146
0.52803003 3.38658983 22.51587913 53 59 63
-0.67381730 -0.70354058 21.89125406 193 205 194
-1.22311020 -2.59739535 24.56995116 66 59 44
2.93101076 4.93700843 24.11093876 23 25 29
-1.15341896 -0.82904827 21.96215778 182 197 191
-1.02785340 -0.23057118 22.02698679 198 213 200
3.70229399 4.19682875 24.79869430 200 183 171
2.09409458 5.48625427 23.20348357 58 109 116
1.77546215 2.23296453 22.61445654 157 150 143
-2.28121417 2.66913613 22.84023479 195 203 189
3.49067578 4.29244943 24.71346566 190 177 165
3.06455180 4.25050904 24.80080958 163 160 155
-0.17710668 -5.18869202 33.44240320 177 167 166
2.81686778 6.31489094 22.71337793 193 203 202
1.57787512 1.72131332 22.40243058 75 79 83
1.50394522 5.46229313 23.09696468 142 142 140
-3.11254745 3.37524920 23.77173815 84 80 74
-3.07749591 3.97831961 23.65436441 135 114 92
-3.32681506 3.94936422 23.83325584 175 134 106
-0.17257305 0.53464721 20.72652550 236 227 198
2.30926324 5.27986205 23.43352188 59 102 107
1.29139384 -3.95662798 32.67965062 148 150 162
2.81084501 6.24008820 22.72036289 218 230 221
-2.00925800 3.34173150 22.84642731 102 138 159
3.90478533 4.38726751 24.57412567 197 191 184
0.81612623 4.42192690 22.76886926 47 57 67
-1.17565116 -2.56199266 24.68090860 238 226 202
-3.77544834 4.23190217 23.74797891 145 115 91
2.95607653 5.91318013 22.87779437 189 222 220
2.85073991 6.31631872 22.69367544 32 42 39
1.46278610 4.82518207 23.03888874 124 121 113
-0.02016309 -1.28406273 21.94121271 231 228 210
3.74218460 3.64217536 25.31647337 100 96 87
1.89075239 5.78108639 23.17576777 55 56 56
2.18439855 5.32276551 23.38913542 107 119 118
-4.23522266 7.12716206 21.65483202 113 105 73
2.35263286 5.34967900 23.32869927 9 10 2
-4.63220883 4.53604959 23.59074903 86 92 88
2.60178080 5.82705367 22.92863296 75 152 160
2.46641254 -1.53140439 24.06089066 182 141 95
-2.31015291 -1.23358227 22.78950501 207 209 199
3.17533349 5.72099446 23.00055023 125 190 195
1.29769522 4.36318336 22.92185975 46 56 66
1.39416705 5.45321259 23.29688256 104 105 107
2.70811447 -1.20666970 22.22179504 170 161 147
-0.04749865 5.49432062 23.02575375 92 98 96
4.15443250 3.99539212 24.95962385 193 182 169
3.57384718 4.20215755 24.78171185 14 15 12
-1.59301313 0.19729399 22.40687553 111 142 159
3.01956326 4.27087226 24.73396486 61 82 82
3.26781307 4.53485199 24.44492553 50 86 87
4.78314218 4.32832449 24.58899305 105 166 165
-5.64454637 5.32212587 23.47190011 91 95 94
-5.86038371 -6.57003417 33.10738779 182 176 176
3.04756669 3.97910480 25.08599545 146 145 139
3.26781307 4.53485199 24.44492553 50 86 87
4.15132696 4.16221633 24.81020216 66 125 123
2.21894066 5.30551093 23.37468548 53 80 82
-4.19951697 4.09834967 23.91279806 162 136 113
3.01956326 4.27087226 24.73396486 61 82 82
-4.29758690 4.03903109 23.84892976 135 133 120
-4.17830862 4.25882022 23.86806828 152 132 113
3.75377145 4.38109402 24.56962275 19 20 16
3.66579519 3.89543820 25.10924656 189 177 162
3.13004609 3.75395618 25.48960275 188 170 158
-6.04267614 2.92901115 23.55775539 184 190 178
2.44283930 4.48379466 24.66866427 60 67 73
-4.57915227 2.37529573 25.88922712 228 230 214
2.58767241 3.93195759 23.88667449 60 85 87
2.58767241 3.93195759 23.88667449 60 85 87
-0.66957244 -0.70601862 22.00006717 189 199 187
2.66682966 5.77436824 22.86538076 179 198 190
-2.52344406 4.22486822 23.16114059 186 200 195
2.19452917 -2.11888354 23.37537177 117 108 99
-2.39637737 4.30298955 23.09950619 178 194 190
-1.71256394 1.95592390 22.58088484 131 159 180
3.89974578 4.48838899 24.43994762 195 188 180
-2.30464726 4.32441887 23.07977345 92 127 146
-3.93132086 4.16996430 23.94436808 162 128 103
-1.42972783 1.98908771 22.41566796 110 127 133
-4.16559421 4.06123175 24.00500663 112 80 55
3.88950648 4.49051090 24.46625199 194 187 179
2.28183654 5.46814430 23.19135748 149 145 138
-4.02201098 4.04370247 23.98819791 132 96 69
3.17988531 4.23861202 24.89412496 73 85 80
-4.92907411 4.58680081 20.97361804 129 137 139
-0.81462498 -0.76180629 21.92686405 111 133 148
-1.52703189 0.25563960 22.21175454 201 216 205
-1.42262917 1.41429013 22.30005446 104 136 155
1.77191504 -2.34755631 24.79012692 230 219 200
1.36356665 4.31961561 22.95258538 134 134 128
-1.71012280 0.16640020 22.27831968 117 149 170
4.04936455 4.12742987 24.86799146 105 139 132
1.32381435 5.42906079 23.30078185 7 11 12
4.04936455 4.12742987 24.86799146 105 139 132
3.20474633 3.83902411 24.76694058 162 149 136
2.43542849 4.29420348 24.22341734 94 99 105
-3.16411930 3.68826644 23.87022512 170 137 111
4.76066047 -4.58761202 33.85759609 173 163 161
-2.31775117 1.60639215 22.94845481 112 137 149
-1.14515831 -0.83154840 22.16867950 183 196 185
0.92542195 2.29841712 22.38838438 39 43 47
3.57088494 4.44957883 24.52498555 176 161 145
2.63452866 5.53300905 23.10692458 20 16 15
3.01130633 6.38710810 22.60926765 218 225 217
4.59076890 4.31373639 24.55525652 202 215 205
-3.58349102 3.95435499 23.93993094 136 97 67
2.08523538 5.37933115 23.32887356 37 67 67
-3.90299967 4.33600115 23.85486416 123 102 81
2.56668522 5.25119674 23.42088219 68 108 113
-3.89383680 3.89586121 23.98337367 137 98 67
3.94238665 3.98908944 24.99813521 131 145 134
-0.12427770 5.36764983 22.89007036 56 69 75
3.84269584 4.45885747 24.50615091 23 23 22
-1.74754759 -2.49727018 24.53362998 238 229 210
-1.06301103 0.34928073 22.25148356 118 147 161
3.76570113 5.62558869 23.04534519 127 138 133
0.66669043 5.17145778 23.01365413 136 132 123
2.46556389 -1.79661788 24.08381714 174 159 130
-5.00698671 5.06399891 23.60820165 70 81 85
-3.21161357 4.08175490 23.89669635 112 79 55
3.09550710 5.39372327 23.19730400 194 216 212
2.99938016 5.88271983 22.82266363 103 181 186
-3.32210984 -3.71355191 34.12865832 33 35 32
-1.27048173 -6.12900577 35.24058980 173 163 162
-5.11614614 5.13397168 24.02149909 132 143 146
1.21800667 -1.39079769 21.96518835 175 124 71
-1.22648494 0.94887952 22.35547224 110 140 156
-2.32541781 -5.62211297 34.46613670 182 174 172
-1.11509813 -0.22864823 22.18009729 121 147 160
-0.39628028 -1.65346062 22.46917224 183 129 68
1.04251171 -5.27730975 34.35360629 95 90 84
0.20427613 -0.45308825 21.55040287 232 222 198
2.44372847 5.59951603 23.03787949 15 15 15
2.04536023 -5.28488854 34.26296049 10 12 11
-1.63943229 0.19472417 22.43005196 121 147 160
2.90019426 5.61624084 22.84161448 184 218 212
1.52460734 1.15385313 22.19401234 153 147 135
0.76438540 -6.09618739 34.33629908 170 159 157
2.49028458 5.04999637 24.04712343 116 115 113
-2.73314256 3.58925097 23.48082890 110 139 156
1.68487650 -4.86851089 34.34961983 141 141 149
-2.46148523 0.04996124 23.92770399 203 202 184
1.35947793 1.18605334 22.24771297 142 138 132
-5.03759978 5.01879988 24.03064255 146 160 161
1.17024224 -5.00111072 34.43007003 162 157 163
2.21680991 4.77168115 23.80601788 139 130 121
-4.90655763 4.80999025 24.02978100 155 167 167
-4.13109002 1.29337857 26.03800340 136 133 128
-0.15796672 -1.14170476 21.82770439 137 163 178
-2.98095354 -4.55403009 34.68132266 84 78 54
-1.49170828 -6.40960617 35.42096391 17 21 22
-3.07489437 -6.03311450 34.82700857 134 124 109
-1.72494575 1.36888620 22.56660290 188 196 181
1.87501724 -2.36538993 25.01973346 223 214 200
2.21680991 4.77168115 23.80601788 139 130 121
-3.10223413 -5.45728419 34.52915386 119 112 102
0.79687207 -4.97669327 34.69385048 163 152 148
-2.18930233 -1.74140108 22.76394653 126 153 170
-2.20908424 4.44614429 23.27579225 195 207 195
3.26966769 -6.44034513 34.56727865 198 190 187
1.92500599 -6.20133865 34.74298936 167 156 154
-1.31475694 0.87485389 22.41797020 186 197 182
1.56845371 -6.08460676 34.53283993 80 76 73
-4.02140420 4.22590182 24.33863583 150 118 95
-3.67391455 4.04253343 24.33459097 163 126 97
-3.86008322 4.05055102 24.33682740 171 134 105
-2.47672250 3.10958975 23.31599638 139 172 191
2.71543830 -4.40356343 34.36721166 173 159 155
-1.21959623 -0.87174633 22.22628856 112 133 143
-1.14843951 1.52694859 22.41283869 181 195 188
1.28166662 -5.23303114 34.37983787 21 22 24
-5.27253990 4.75151423 23.83436922 150 156 149
0.65070646 2.38523969 20.71072017 45 52 60
-2.14748766 2.83141384 23.06906306 104 131 146
1.91218349 -2.34529757 24.97343740 228 216 200
-4.02140420 4.22590182 24.33863583 150 118 95
2.11964229 -6.07332359 34.46011993 43 42 37
0.79654861 1.39693491 20.81830451 47 54 64
1.02405839 -5.55418033 34.38553240 111 104 96
-3.55603242 -3.23426349 34.17902503 86 83 77
-1.60470902 1.91863326 22.64419715 188 198 188
-1.37056018 2.15517921 20.66148519 106 133 152
-2.40800176 -1.87738992 22.87571512 128 150 164
3.02607478 0.91086273 23.34048777 86 86 86
-2.45524237 0.37597710 22.98531372 203 206 190
-4.10660828 4.24109579 24.34720089 161 131 107
-4.14898388 4.37728206 24.34794999 88 67 48
-2.34738891 2.64784414 23.23062334 202 202 189
4.37792522 -5.41051686 34.38558480 24 24 22
0.60466296 3.46686617 21.60295526 108 117 126
3.02607478 0.91086273 23.34048777 86 86 86
3.04265311 -1.99095414 24.20654765 135 124 112
-2.28258298 -1.04538071 23.91399517 204 205 189
-1.58045661 3.09398831 20.81961198 49 85 107
-2.87658200 2.08048270 23.86403199 112 126 131
0.83421433 0.36994792 20.77616464 85 102 118
-3.64572016 3.90022217 24.30769348 175 136 105
3.41162739 -1.67230148 23.43413135 135 126 117
-2.66872758 1.76327570 23.63888457 190 192 184
3.21798917 -4.72794282 34.45244793 177 168 159
1.47121876 -3.92020437 34.38826918 133 135 142
-1.17314760 2.63093727 22.53221945 188 197 186
-3.86089192 3.91652690 24.38648900 178 137 107
-2.92256493 -5.69251861 34.72693501 223 210 207
2.55879245 5.24618510 23.38935484 64 104 109
-3.71979039 3.96802915 24.32307494 170 131 100
1.47121876 -3.92020437 34.38826918 133 135 142
0.19848397 -1.53829440 22.50728255 182 130 73
-2.52702178 -2.36624804 23.66069805 75 69 55
-1.53101737 1.96295628 22.58341231 106 122 127
1.72532764 0.09295271 22.14810009 93 106 120
-3.27775137 4.08730068 24.26049289 148 113 85
-0.63046903 2.97739094 20.08472500 195 193 178
-1.98279323 -5.27860674 35.21592638 127 117 108
4.94164476 -3.89319991 35.14610673 118 110 107
-0.57887632 4.75854341 22.60928577 51 70 84
3.21798917 -4.72794282 34.45244793 177 168 159
2.15731649 -4.48070920 34.51825248 6 8 9
-2.64139386 -1.57274348 23.51784328 197 199 193
-2.46148523 0.04996124 23.92770399 203 202 184
1.71545691 -3.81086370 34.25824867 114 118 127
-2.62577660 -1.51810652 23.47330376 188 186 172
-4.40075937 4.39117876 24.11399049 81 84 80
3.22217975 -0.22770974 23.33330113 97 92 90
-2.68678924 1.73741397 23.67897046 52 56 54
1.17039250 -4.21856884 34.52702919 157 152 158
1.26809026 2.14136217 21.59863018 133 123 111
4.28651569 -3.97104340 34.58488084 17 18 20
2.34105236 5.38611101 23.17870951 163 119 39
2.43416202 4.15348018 23.89628809 58 65 71
-3.15101445 4.07724101 24.21922854 162 129 104
2.43416202 4.15348018 23.89628809 58 65 71
-1.21244460 -5.28923141 34.77736474 154 140 131
-5.29517856 3.25051553 23.58616212 218 218 192
-2.95451738 2.00110570 24.05599991 126 136 138
2.54892653 4.62230500 24.22246047 22 74 78
-3.30428272 1.83679086 25.20686484 133 130 125
-3.39305563 3.98075741 24.29634727 122 85 56
0.63834189 0.14107690 20.79768569 83 97 111
4.28651569 -3.97104340 34.58488084 17 18 20
-2.73762565 -0.48480221 23.62581151 190 190 183
3.50653756 4.26401752 24.76630528 20 19 15
-2.06604309 -5.68164714 34.97147703 86 84 79
0.95401903 -4.31668669 34.87942129 87 82 76
0.95401903 -4.31668669 34.87942129 87 82 76
1.07368559 -2.54275283 25.26243558 63 56 45
-3.17900907 2.94084908 24.22897152 139 106 79
-3.08895888 2.46446874 24.29099229 185 186 182
-2.78882004 1.21322510 23.76813367 85 94 100
1.36595814 -5.61515410 34.17660097 144 140 141
-1.01176499 -4.05677024 34.66477082 114 101 85
1.07368559 -2.54275283 25.26243558 63 56 45
-4.94803002 5.07099128 24.03842223 23 31 33
-1.86275139 -2.27713936 24.45841788 208 183 153
-3.20114769 2.63286633 24.95555039 130 122 111
2.66282220 -3.87483083 34.75509536 47 46 44
-1.21415469 -4.08505617 34.47556986 54 49 27
-3.17370043 2.83430918 24.66332250 127 115 101
3.17100126 4.13121348 25.16471946 160 147 140
0.63531295 -3.86414596 33.21822795 115 109 105
2.81773181 3.55987453 24.11021690 180 161 150
-2.81188877 0.53237758 24.03584457 187 186 177
-4.27000212 4.10974155 24.36374007 104 82 59
1.49157777 -2.72438271 27.22929898 225 213 190
-2.63829472 -2.10424643 23.60915342 164 169 169
2.73119334 -1.60647210 23.36528995 220 204 181
-3.17760677 3.22502916 24.51956975 127 95 72
-0.55432647 5.27714240 23.06174016 91 92 84
0.78028200 0.53578566 21.11299396 73 82 93
-1.44621817 -5.59240172 34.54251533 150 144 138
2.54119198 5.64118578 23.05989912 18 17 14
-1.39238320 3.37896941 21.19379026 126 157 178
-2.61768298 0.71754307 22.97170789 96 116 128
-2.28258298 -1.04538071 23.91399517 204 205 189
1.14228696 -3.82605046 34.20513500 146 137 135
-2.31965415 1.60847785 22.91976140 121 144 159
-3.32899519 3.74115312 24.29299793 22 22 16
-3.86405854 4.05278826 24.04098502 131 92 63
3.03674385 5.38370017 23.12967831 81 172 178
1.82025493 3.35828604 23.43609301 138 134 125
-1.00489166 -2.45806247 24.89185541 192 148 97
3.08712590 4.22121839 24.90095369 78 95 94
-3.92686363 4.09922523 24.01500610 162 126 98
0.29558653 -1.34346259 21.91341343 165 117 68
-5.10949734 5.13443077 23.68968219 108 119 123
-0.89723826 -2.62345392 25.02276469 50 47 32
-2.28298562 -6.35320061 34.79744501 178 170 168
-5.81163540 5.72678475 25.49931090 52 60 63
-2.27793964 2.17914352 22.87688559 201 205 190
1.17271425 5.54854683 23.23475904 17 21 22
3.55017365 4.23796697 24.76490485 180 171 162
2.49824113 5.48365131 23.10736035 18 15 16
4.46529679 4.20540684 24.74038098 54 149 153
-1.80000042 -2.53682037 24.46380507 103 95 78
-4.91583050 4.92621510 23.74299246 41 51 52
-4.23376825 3.91783618 24.10549027 186 160 138
-1.14044382 -0.82569439 22.14056130 183 196 185
1.60997146 2.32595988 22.56393637 39 46 56
3.10725117 5.75868783 22.87117934 101 180 187
3.95168202 4.13271285 24.83169814 191 174 159
4.11662201 4.30392524 24.59549491 207 197 183
2.26836389 -1.46887934 23.52893170 171 127 80
-3.79618373 3.84946900 24.08131396 134 93 63
-1.75329304 0.10741464 22.43255722 101 137 161
-1.84887672 -2.50042454 24.51895812 215 203 181
2.11055599 5.40994155 23.22140668 57 81 83
2.07968096 5.36782566 23.29103738 44 73 78
-3.21638457 -6.93745970 35.13924784 93 90 78
-1.02867849 -0.18076669 22.18747408 109 140 160
-1.42576481 -0.89501940 22.21391269 188 200 189
2.81776047 5.71953342 22.79214597 191 216 209
2.62430054 5.44636815 23.03799699 174 174 166
-1.81533685 0.75444129 22.47978241 106 136 151
1.36773023 -5.81394931 34.17703940 154 148 148
-1.21969868 2.04667848 22.41494203 175 184 180
4.33120676 -5.36879612 34.15058255 24 24 22
-3.79862801 4.37564075 24.19209299 116 98 78
-1.28951271 -0.27219676 22.19022899 124 149 156
0.72712643 -5.51094813 34.83726293 12 12 12
-2.89002846 2.00656817 23.86652243 197 193 180
-0.64043305 2.96564386 19.98225437 195 193 178
0.72712643 -5.51094813 34.83726293 12 12 12
-0.69682940 -0.10722741 22.00831026 113 138 146
-1.46683258 -1.88367975 22.40348460 188 137 79
-1.60847713 1.91531558 22.54908351 188 198 188
-3.59080421 3.16156178 25.53694296 94 75 59
-2.48435709 4.72024394 23.58309536 120 126 122
1.36773023 -5.81394931 34.17703940 154 148 148
-0.94475165 0.39665511 22.13109612 110 133 144
-0.88700681 0.16946612 21.10176125 121 149 170
-2.78835598 -5.47539788 34.46704418 114 110 107
-1.35722253 2.93061310 20.86271966 180 186 172
2.24453273 -6.20017671 34.20471076 177 159 143
-1.94844888 1.22780082 22.60359515 103 131 143
-1.11094511 -2.32265491 23.93380230 178 135 83
3.64767224 4.26201405 24.76650739 172 166 159
-2.10899040 1.96322970 23.38565101 81 108 126
-1.64517524 -5.74185828 34.86749240 65 67 56
0.35400895 2.12144719 20.13818614 47 48 52
-4.05046808 4.34500311 24.20865505 89 68 48
4.96176686 -4.66102956 34.63195833 159 149 147
-1.53692654 -2.02393979 22.90171618 196 145 88
2.11594662 -4.24124046 34.28653271 7 9 8
2.56833852 3.99661572 23.70220786 142 134 129
-0.31888420 4.79792736 22.72716550 52 63 75
-4.26015538 4.28670649 24.24452324 118 107 91
-4.74070043 4.73806740 23.93484219 48 47 43
-6.53001543 3.52242621 23.56937821 147 153 149
1.63752843 -5.20848957 34.08581419 41 40 38
3.34935926 4.47192442 24.41106629 153 145 141
-6.74291181 -6.80354268 35.54497111 99 101 97
2.95883564 6.36660494 22.36580872 47 58 60
-1.37922710 1.95707501 22.35752130 181 185 172
-1.45661179 1.43584395 22.34943691 188 200 195
3.01312404 -1.89011119 23.60888351 140 131 122
4.67246996 4.28854454 24.80469731 206 207 201
-5.88281061 2.19295873 25.35214286 138 138 136
1.42198994 -4.34192148 34.05910675 146 147 157
-0.98982787 2.10948904 22.26704566 168 179 172
-2.10001920 -1.11878907 22.53114069 206 215 203
-4.08915600 3.38575280 25.39201328 175 178 167
-2.92918212 3.78650911 23.65664291 139 161 175
-2.28541821 0.54307519 22.73778050 110 127 142
1.42198994 -4.34192148 34.05910675 146 147 157
-0.97778708 1.56343060 22.19532262 177 187 176
0.14391724 -1.41150572 21.93527046 163 118 59
1.26581264 -1.00244326 21.48334364 104 112 123
1.86010631 5.56164182 23.24561597 141 141 139
-1.68542296 3.01542143 22.61957912 145 176 198
-1.45536551 4.14203861 21.14341776 90 122 147
-3.62108840 3.49379243 24.75321422 52 44 29
-2.73670752 4.29479498 23.59933088 187 190 179
3.04945579 5.00828333 23.89329377 42 47 50
3.14782725 4.21915313 24.78021007 70 83 81
-0.85136055 -1.74098276 22.51667865 173 123 61
-0.63045100 -1.70698741 22.41419810 185 132 67
-1.22741550 1.19874448 20.60059480 97 119 140
-1.28913724 1.48651252 22.28941064 191 200 189
-2.84592550 3.15377481 24.14934222 205 205 189
-3.27268121 3.75235317 24.26924001 168 135 104
-4.28982046 7.13914054 21.91452269 117 113 81
3.56541010 4.61119621 24.23307576 165 169 167
0.46201379 3.35777742 20.89009703 63 72 81
-4.28982046 7.13914054 21.91452269 117 113 81
-3.73306307 4.41471811 23.85179063 68 60 49
1.82350846 4.26129278 23.08786426 49 57 68
-2.97709505 1.80708561 24.03147569 199 191 176
-1.21105116 -0.82132790 22.04613273 180 191 185
-1.04073758 -2.59515293 24.93148390 69 80 82
3.74272918 3.94631870 25.02835807 180 173 163
-3.23836083 4.14558358 24.06061671 141 113 89
1.45623416 5.27814274 23.10975546 61 69 73
-5.55780529 1.96976524 25.51219907 137 137 135
0.03768628 -1.46835946 22.02851585 160 114 57
-0.80609016 -1.83897006 22.69998636 191 137 73
0.75097187 -1.39219940 22.10463335 150 105 54
-0.92959222 -1.76095499 22.59597279 175 126 65
-4.07005213 3.91072125 24.32446618 164 130 102
-4.15907054 3.87306762 24.40714504 161 129 104
-2.66291691 -1.11706568 23.59309865 203 196 185
4.04195353 4.18172618 24.71229301 188 175 167
-4.72401451 -5.10154074 34.84866719 204 196 183
0.44749853 -1.34916378 21.90914218 159 118 73
-1.25323005 4.71116958 22.78430186 175 189 189
-3.54708148 3.92937510 24.12336733 169 134 104
2.95883564 6.36660494 22.36580872 47 58 60
3.04889026 5.35890864 23.03621077 191 218 211
-4.07005213 3.91072125 24.32446618 164 130 102
-3.08862353 2.37696035 24.25028637 179 181 178
2.56830275 4.55685231 24.28296639 51 69 70
-4.83582799 4.75702871 23.86193212 148 158 159
-0.99844480 1.25603250 20.15491705 214 212 190
-0.46375335 0.32560718 21.49008847 235 229 203
-4.58913220 4.53810899 24.03964086 140 146 146
-4.70717859 4.60391062 23.99718428 132 137 137
2.39611207 4.08353786 23.64708671 71 78 84
-0.54116481 4.79384944 22.69997530 20 37 53
-3.54708148 3.92937510 24.12336733 169 134 104
-6.43218184 3.43911911 23.66842057 148 153 146
-2.75597460 1.52057850 23.60524083 6 8 12
-5.11472671 5.14664149 23.85072928 123 134 138
3.13411040 5.68064546 22.81538981 110 182 188
-4.02785520 4.07306651 24.26954092 118 86 61
-2.30998881 -4.68169602 35.11226099 57 50 39
2.39611207 4.08353786 23.64708671 71 78 84
-1.02063165 -2.50435334 24.88174812 227 215 189
-4.29985985 4.07498155 24.16549726 148 135 118
-2.55120363 1.83028242 23.25382862 147 164 179
-2.67006921 1.24334126 23.04554755 176 172 160
-0.92824105 2.37584423 21.23051260 209 208 187
-3.11870351 3.35548290 24.19581768 83 75 67
-2.27092803 -2.21817167 24.00550457 234 228 206
0.18161830 -5.76632187 36.92418369 168 158 156
-4.24418332 3.98890287 24.19046068 108 88 64
0.00000000 0.00000000 0.00000000 88 166 255
-0.00913784 -0.00639649 0.01827568 88 166 255
-0.01827568 -0.01279298 0.03655137 88 166 255
-0.02741353 -0.01918947 0.05482705 88 166 255
-0.03655137 -0.02558596 0.07310274 88 166 255
-0.04568921 -0.03198245 0.09137842 88 166 255
-0.05482705 -0.03837894 0.10965410 88 166 255
-0.06396489 -0.04477543 0.12792979 88 166 255
-0.07310274 -0.05117191 0.14620547 88 166 255
-0.08224058 -0.05756840 0.16448115 88 166 255
-0.09137842 -0.06396489 0.18275684 88 166 255
-0.10051626 -0.07036138 0.20103252 88 166 255
-0.10965410 -0.07675787 0.21930821 88 166 255
-0.11879195 -0.08315436 0.23758389 88 166 255
-0.12792979 -0.08955085 0.25585957 88 166 255
-0.13706763 -0.09594734 0.27413526 88 166 255
-0.14620547 -0.10234383 0.29241094 88 166 255
-0.15534331 -0.10874032 0.31068663 88 166 255
-0.16448115 -0.11513681 0.32896231 88 166 255
-0.17361900 -0.12153330 0.34723799 88 166 255
-0.18275684 -0.12792979 0.36551368 88 166 255
-0.19189468 -0.13432628 0.38378936 88 166 255
-0.20103252 -0.14072277 0.40206504 88 166 255
-0.21017036 -0.14711925 0.42034073 88 166 255
0.00000000 0.00000000 0.00000000 88 166 255
0.00913784 -0.00639649 0.01827568 88 166 255
0.01827568 -0.01279298 0.03655137 88 166 255
0.02741353 -0.01918947 0.05482705 88 166 255
0.03655137 -0.02558596 0.07310274 88 166 255
0.04568921 -0.03198245 0.09137842 88 166 255
0.05482705 -0.03837894 0.10965410 88 166 255
0.06396489 -0.04477543 0.12792979 88 166 255
0.07310274 -0.05117191 0.14620547 88 166 255
0.08224058 -0.05756840 0.16448115 88 166 255
0.09137842 -0.06396489 0.18275684 88 166 255
0.10051626 -0.07036138 0.20103252 88 166 255
0.10965410 -0.07675787 0.21930821 88 166 255
0.11879195 -0.08315436 0.23758389 88 166 255
0.12792979 -0.08955085 0.25585957 88 166 255
0.13706763 -0.09594734 0.27413526 88 166 255
0.14620547 -0.10234383 0.29241094 88 166 255
0.15534331 -0.10874032 0.31068663 88 166 255
0.16448115 -0.11513681 0.32896231 88 166 255
0.17361900 -0.12153330 0.34723799 88 166 255
0.18275684 -0.12792979 0.36551368 88 166 255
0.19189468 -0.13432628 0.38378936 88 166 255
0.20103252 -0.14072277 0.40206504 88 166 255
0.21017036 -0.14711925 0.42034073 88 166 255
0.00000000 0.00000000 0.00000000 88 166 255
0.00913784 0.00639649 0.01827568 88 166 255
0.01827568 0.01279298 0.03655137 88 166 255
0.02741353 0.01918947 0.05482705 88 166 255
0.03655137 0.02558596 0.07310274 88 166 255
0.04568921 0.03198245 0.09137842 88 166 255
0.05482705 0.03837894 0.10965410 88 166 255
0.06396489 0.04477543 0.12792979 88 166 255
0.07310274 0.05117191 0.14620547 88 166 255
0.08224058 0.05756840 0.16448115 88 166 255
0.09137842 0.06396489 0.18275684 88 166 255
0.10051626 0.07036138 0.20103252 88 166 255
0.10965410 0.07675787 0.21930821 88 166 255
0.11879195 0.08315436 0.23758389 88 166 255
0.12792979 0.08955085 0.25585957 88 166 255
0.13706763 0.09594734 0.27413526 88 166 255
0.14620547 0.10234383 0.29241094 88 166 255
0.15534331 0.10874032 0.31068663 88 166 255
0.16448115 0.11513681 0.32896231 88 166 255
0.17361900 0.12153330 0.34723799 88 166 255
0.18275684 0.12792979 0.36551368 88 166 255
0.19189468 0.13432628 0.38378936 88 166 255
0.20103252 0.14072277 0.40206504 88 166 255
0.21017036 0.14711925 0.42034073 88 166 255
0.00000000 0.00000000 0.00000000 88 166 255
-0.00913784 0.00639649 0.01827568 88 166 255
-0.01827568 0.01279298 0.03655137 88 166 255
-0.02741353 0.01918947 0.05482705 88 166 255
-0.03655137 0.02558596 0.07310274 88 166 255
-0.04568921 0.03198245 0.09137842 88 166 255
-0.05482705 0.03837894 0.10965410 88 166 255
-0.06396489 0.04477543 0.12792979 88 166 255
-0.07310274 0.05117191 0.14620547 88 166 255
-0.08224058 0.05756840 0.16448115 88 166 255
-0.09137842 0.06396489 0.18275684 88 166 255
-0.10051626 0.07036138 0.20103252 88 166 255
-0.10965410 0.07675787 0.21930821 88 166 255
-0.11879195 0.08315436 0.23758389 88 166 255
-0.12792979 0.08955085 0.25585957 88 166 255
-0.13706763 0.09594734 0.27413526 88 166 255
-0.14620547 0.10234383 0.29241094 88 166 255
-0.15534331 0.10874032 0.31068663 88 166 255
-0.16448115 0.11513681 0.32896231 88 166 255
-0.17361900 0.12153330 0.34723799 88 166 255
-0.18275684 0.12792979 0.36551368 88 166 255
-0.19189468 0.13432628 0.38378936 88 166 255
-0.20103252 0.14072277 0.40206504 88 166 255
-0.21017036 0.14711925 0.42034073 88 166 255
-0.21017036 -0.14711925 0.42034073 88 166 255
-0.19189468 -0.14711925 0.42034073 88 166 255
-0.17361900 -0.14711925 0.42034073 88 166 255
-0.15534331 -0.14711925 0.42034073 88 166 255
-0.13706763 -0.14711925 0.42034073 88 166 255
-0.11879195 -0.14711925 0.42034073 88 166 255
-0.10051626 -0.14711925 0.42034073 88 166 255
-0.08224058 -0.14711925 0.42034073 88 166 255
-0.06396489 -0.14711925 0.42034073 88 166 255
-0.04568921 -0.14711925 0.42034073 88 166 255
-0.02741353 -0.14711925 0.42034073 88 166 255
-0.00913784 -0.14711925 0.42034073 88 166 255
0.00913784 -0.14711925 0.42034073 88 166 255
0.02741353 -0.14711925 0.42034073 88 166 255
0.04568921 -0.14711925 0.42034073 88 166 255
0.06396489 -0.14711925 0.42034073 88 166 255
0.08224058 -0.14711925 0.42034073 88 166 255
0.10051626 -0.14711925 0.42034073 88 166 255
0.11879195 -0.14711925 0.42034073 88 166 255
0.13706763 -0.14711925 0.42034073 88 166 255
0.15534331 -0.14711925 0.42034073 88 166 255
0.17361900 -0.14711925 0.42034073 88 166 255
0.19189468 -0.14711925 0.42034073 88 166 255
0.21017036 -0.14711925 0.42034073 88 166 255
0.21017036 -0.14711925 0.42034073 88 166 255
0.21017036 -0.13432628 0.42034073 88 166 255
0.21017036 -0.12153330 0.42034073 88 166 255
0.21017036 -0.10874032 0.42034073 88 166 255
0.21017036 -0.09594734 0.42034073 88 166 255
0.21017036 -0.08315436 0.42034073 88 166 255
0.21017036 -0.07036138 0.42034073 88 166 255
0.21017036 -0.05756840 0.42034073 88 166 255
0.21017036 -0.04477543 0.42034073 88 166 255
0.21017036 -0.03198245 0.42034073 88 166 255
0.21017036 -0.01918947 0.42034073 88 166 255
0.21017036 -0.00639649 0.42034073 88 166 255
0.21017036 0.00639649 0.42034073 88 166 255
0.21017036 0.01918947 0.42034073 88 166 255
0.21017036 0.03198245 0.42034073 88 166 255
0.21017036 0.04477543 0.42034073 88 166 255
0.21017036 0.05756840 0.42034073 88 166 255
0.21017036 0.07036138 0.42034073 88 166 255
0.21017036 0.08315436 0.42034073 88 166 255
0.21017036 0.09594734 0.42034073 88 166 255
0.21017036 0.10874032 0.42034073 88 166 255
0.21017036 0.12153330 0.42034073 88 166 255
0.21017036 0.13432628 0.42034073 88 166 255
0.21017036 0.14711925 0.42034073 88 166 255
0.21017036 0.14711925 0.42034073 88 166 255
0.19189468 0.14711925 0.42034073 88 166 255
0.17361900 0.14711925 0.42034073 88 166 255
0.15534331 0.14711925 0.42034073 88 166 255
0.13706763 0.14711925 0.42034073 88 166 255
0.11879195 0.14711925 0.42034073 88 166 255
0.10051626 0.14711925 0.42034073 88 166 255
0.08224058 0.14711925 0.42034073 88 166 255
0.06396489 0.14711925 0.42034073 88 166 255
0.04568921 0.14711925 0.42034073 88 166 255
0.02741353 0.14711925 0.42034073 88 166 255
0.00913784 0.14711925 0.42034073 88 166 255
-0.00913784 0.14711925 0.42034073 88 166 255
-0.02741353 0.14711925 0.42034073 88 166 255
-0.04568921 0.14711925 0.42034073 88 166 255
-0.06396489 0.14711925 0.42034073 88 166 255
-0.08224058 0.14711925 0.42034073 88 166 255
-0.10051626 0.14711925 0.42034073 88 166 255
-0.11879195 0.14711925 0.42034073 88 166 255
-0.13706763 0.14711925 0.42034073 88 166 255
-0.15534331 0.14711925 0.42034073 88 166 255
-0.17361900 0.14711925 0.42034073 88 166 255
-0.19189468 0.14711925 0.42034073 88 166 255
-0.21017036 0.14711925 0.42034073 88 166 255
-0.21017036 0.14711925 0.42034073 88 166 255
-0.21017036 0.13432628 0.42034073 88 166 255
-0.21017036 0.12153330 0.42034073 88 166 255
-0.21017036 0.10874032 0.42034073 88 166 255
-0.21017036 0.09594734 0.42034073 88 166 255
-0.21017036 0.08315436 0.42034073 88 166 255
-0.21017036 0.07036138 0.42034073 88 166 255
-0.21017036 0.05756840 0.42034073 88 166 255
-0.21017036 0.04477543 0.42034073 88 166 255
-0.21017036 0.03198245 0.42034073 88 166 255
-0.21017036 0.01918947 0.42034073 88 166 255
-0.21017036 0.00639649 0.42034073 88 166 255
-0.21017036 -0.00639649 0.42034073 88 166 255
-0.21017036 -0.01918947 0.42034073 88 166 255
-0.21017036 -0.03198245 0.42034073 88 166 255
-0.21017036 -0.04477543 0.42034073 88 166 255
-0.21017036 -0.05756840 0.42034073 88 166 255
-0.21017036 -0.07036138 0.42034073 88 166 255
-0.21017036 -0.08315436 0.42034073 88 166 255
-0.21017036 -0.09594734 0.42034073 88 166 255
-0.21017036 -0.10874032 0.42034073 88 166 255
-0.21017036 -0.12153330 0.42034073 88 166 255
-0.21017036 -0.13432628 0.42034073 88 166 255
-0.21017036 -0.14711925 0.42034073 88 166 255
0.98415737 0.03456460 0.17389526 255 123 114
0.97389975 0.02844342 0.19166401 255 123 114
0.96364213 0.02232225 0.20943275 255 123 114
0.95338450 0.01620108 0.22720150 255 123 114
0.94312688 0.01007991 0.24497024 255 123 114
0.93286926 0.00395874 0.26273899 255 123 114
0.92261164 -0.00216244 0.28050774 255 123 114
0.91235402 -0.00828361 0.29827648 255 123 114
0.90209640 -0.01440478 0.31604523 255 123 114
0.89183878 -0.02052595 0.33381397 255 123 114
0.88158115 -0.02664713 0.35158272 255 123 114
0.87132353 -0.03276830 0.36935146 255 123 114
0.86106591 -0.03888947 0.38712021 255 123 114
0.85080829 -0.04501064 0.40488895 255 123 114
0.84055067 -0.05113181 0.42265770 255 123 114
0.83029305 -0.05725299 0.44042644 255 123 114
0.82003542 -0.06337416 0.45819519 255 123 114
0.80977780 -0.06949533 0.47596393 255 123 114
0.79952018 -0.07561650 0.49373268 255 123 114
0.78926256 -0.08173767 0.51150142 255 123 114
0.77900494 -0.08785885 0.52927017 255 123 114
0.76874732 -0.09398002 0.54703891 255 123 114
0.75848970 -0.10010119 0.56480766 255 123 114
0.74823207 -0.10622236 0.58257640 255 123 114
0.98415737 0.03456460 0.17389526 255 123 114
0.99214391 0.02804828 0.19266142 255 123 114
1.00013046 0.02153197 0.21142757 255 123 114
1.00811701 0.01501565 0.23019373 255 123 114
1.01610355 0.00849934 0.24895988 255 123 114
1.02409010 0.00198302 0.26772604 255 123 114
1.03207665 -0.00453329 0.28649219 255 123 114
1.04006319 -0.01104961 0.30525835 255 123 114
1.04804974 -0.01756592 0.32402450 255 123 114
1.05603628 -0.02408224 0.34279066 255 123 114
1.06402283 -0.03059855 0.36155681 255 123 114
1.07200938 -0.03711487 0.38032297 255 123 114
1.07999592 -0.04363118 0.39908912 255 123 114
1.08798247 -0.05014750 0.41785528 255 123 114
1.09596902 -0.05666381 0.43662143 255 123 114
1.10395556 -0.06318013 0.45538759 255 123 114
1.11194211 -0.06969644 0.47415374 255 123 114
1.11992865 -0.07621276 0.49291990 255 123 114
1.12791520 -0.08272907 0.51168605 255 123 114
1.13590175 -0.08924539 0.53045221 255 123 114
1.14388829 -0.09576170 0.54921836 255 123 114
1.15187484 -0.10227802 0.56798452 255 123 114
1.15986139 -0.10879433 0.58675067 255 123 114
1.16784793 -0.11531065 0.60551683 255 123 114
0.98415737 0.03456460 0.17389526 255 123 114
0.99242301 0.04083816 0.19262325 255 123 114
1.00068866 0.04711172 0.21135123 255 123 114
1.00895430 0.05338528 0.23007922 255 123 114
1.01721994 0.05965884 0.24880720 255 123 114
1.02548559 0.06593241 0.26753519 255 123 114
1.03375123 0.07220597 0.28626317 255 123 114
1.04201687 0.07847953 0.30499116 255 123 114
1.05028252 0.08475309 0.32371914 255 123 114
1.05854816 0.09102665 0.34244713 255 123 114
1.06681380 0.09730022 0.36117511 255 123 114
1.07507945 0.10357378 0.37990309 255 123 114
1.08334509 0.10984734 0.39863108 255 123 114
1.09161074 0.11612090 0.41735906 255 123 114
1.09987638 0.12239446 0.43608705 255 123 114
1.10814202 0.12866803 0.45481503 255 123 114
1.11640767 0.13494159 0.47354302 255 123 114
1.12467331 0.14121515 0.49227100 255 123 114
1.13293895 0.14748871 0.51099899 255 123 114
1.14120460 0.15376227 0.52972697 255 123 114
1.14947024 0.16003584 0.54845496 255 123 114
1.15773588 0.16630940 0.56718294 255 123 114
1.16600153 0.17258296 0.58591093 255 123 114
1.17426717 0.17885652 0.60463891 255 123 114
0.98415737 0.03456460 0.17389526 255 123 114
0.97417884 0.04123330 0.19162584 255 123 114
0.96420032 0.04790201 0.20935641 255 123 114
0.95422180 0.05457071 0.22708699 255 123 114
0.94424327 0.06123942 0.24481756 255 123 114
0.93426475 0.06790812 0.26254814 255 123 114
0.92428622 0.07457683 0.28027871 255 123 114
0.91430770 0.08124553 0.29800929 255 123 114
0.90432918 0.08791423 0.31573986 255 123 114
0.89435065 0.09458294 0.33347044 255 123 114
0.88437213 0.10125164 0.35120101 255 123 114
0.87439360 0.10792035 0.36893159 255 123 114
0.86441508 0.11458905 0.38666216 255 123 114
0.85443656 0.12125776 0.40439274 255 123 114
0.84445803 0.12792646 0.42212331 255 123 114
0.83447951 0.13459517 0.43985389 255 123 114
0.82450098 0.14126387 0.45758446 255 123 114
0.81452246 0.14793258 0.47531504 255 123 114
0.80454393 0.15460128 0.49304561 255 123 114
0.79456541 0.16126999 0.51077619 255 123 114
0.78458689 0.16793869 0.52850676 255 123 114
0.77460836 0.17460740 0.54623734 255 123 114
0.76462984 0.18127610 0.56396791 255 123 114
0.75465131 0.18794481 0.58169849 255 123 114
0.74823207 -0.10622236 0.58257640 255 123 114
0.76647624 -0.10661751 0.58357381 255 123 114
0.78472041 -0.10701265 0.58457122 255 123 114
0.80296458 -0.10740779 0.58556863 255 123 114
0.82120875 -0.10780293 0.58656604 255 123 114
0.83945291 -0.10819808 0.58756345 255 123 114
0.85769708 -0.10859322 0.58856086 255 123 114
0.87594125 -0.10898836 0.58955827 255 123 114
0.89418542 -0.10938351 0.59055568 255 123 114
0.91242958 -0.10977865 0.59155309 255 123 114
0.93067375 -0.11017379 0.59255050 255 123 114
0.94891792 -0.11056893 0.59354791 255 123 114
0.96716209 -0.11096408 0.59454532 255 123 114
0.98540626 -0.11135922 0.59554273 255 123 114
1.00365042 -0.11175436 0.59654014 255 123 114
1.02189459 -0.11214951 0.59753755 255 123 114
1.04013876 -0.11254465 0.59853496 255 123 114
1.05838293 -0.11293979 0.59953237 255 123 114
1.07662709 -0.11333493 0.60052978 255 123 114
1.09487126 -0.11373008 0.60152719 255 123 114
1.11311543 -0.11412522 0.60252460 255 123 114
1.13135960 -0.11452036 0.60352201 255 123 114
1.14960376 -0.11491551 0.60451942 255 123 114
1.16784793 -0.11531065 0.60551683 255 123 114
1.16784793 -0.11531065 0.60551683 255 123 114
1.16812703 -0.10252077 0.60547866 255 123 114
1.16840613 -0.08973089 0.60544049 255 123 114
1.16868522 -0.07694102 0.60540232 255 123 114
1.16896432 -0.06415114 0.60536415 255 123 114
1.16924342 -0.05136126 0.60532598 255 123 114
1.16952252 -0.03857139 0.60528780 255 123 114
1.16980161 -0.02578151 0.60524963 255 123 114
1.17008071 -0.01299163 0.60521146 255 123 114
1.17035981 -0.00020176 0.60517329 255 123 114
1.17063891 0.01258812 0.60513512 255 123 114
1.17091800 0.02537800 0.60509695 255 123 114
1.17119710 0.03816787 0.60505878 255 123 114
1.17147620 0.05095775 0.60502061 255 123 114
1.17175530 0.06374763 0.60498244 255 123 114
1.17203439 0.07653751 0.60494427 255 123 114
1.17231349 0.08932738 0.60490610 255 123 114
1.17259259 0.10211726 0.60486793 255 123 114
1.17287169 0.11490714 0.60482976 255 123 114
1.17315078 0.12769701 0.60479159 255 123 114
1.17342988 0.14048689 0.60475342 255 123 114
1.17370898 0.15327677 0.60471525 255 123 114
1.17398807 0.16606664 0.60467708 255 123 114
1.17426717 0.17885652 0.60463891 255 123 114
1.17426717 0.17885652 0.60463891 255 123 114
1.15602300 0.17925166 0.60364150 255 123 114
1.13777884 0.17964681 0.60264409 255 123 114
1.11953467 0.18004195 0.60164668 255 123 114
1.10129050 0.18043709 0.60064927 255 123 114
1.08304633 0.18083223 0.59965186 255 123 114
1.06480217 0.18122738 0.59865445 255 123 114
1.04655800 0.18162252 0.59765704 255 123 114
1.02831383 0.18201766 0.59665963 255 123 114
1.01006966 0.18241281 0.59566222 255 123 114
0.99182549 0.18280795 0.59466481 255 123 114
0.97358133 0.18320309 0.59366740 255 123 114
0.95533716 0.18359823 0.59266999 255 123 114
0.93709299 0.18399338 0.59167258 255 123 114
0.91884882 0.18438852 0.59067517 255 123 114
0.90060466 0.18478366 0.58967776 255 123 114
0.88236049 0.18517881 0.58868035 255 123 114
0.86411632 0.18557395 0.58768294 255 123 114
0.84587215 0.18596909 0.58668554 255 123 114
0.82762799 0.18636423 0.58568813 255 123 114
0.80938382 0.18675938 0.58469072 255 123 114
0.79113965 0.18715452 0.58369331 255 123 114
0.77289548 0.18754966 0.58269590 255 123 114
0.75465131 0.18794481 0.58169849 255 123 114
0.75465131 0.18794481 0.58169849 255 123 114
0.75437222 0.17515493 0.58173666 255 123 114
0.75409312 0.16236505 0.58177483 255 123 114
0.75381402 0.14957517 0.58181300 255 123 114
0.75353492 0.13678530 0.58185117 255 123 114
0.75325583 0.12399542 0.58188934 255 123 114
0.75297673 0.11120554 0.58192751 255 123 114
0.75269763 0.09841567 0.58196568 255 123 114
0.75241854 0.08562579 0.58200385 255 123 114
0.75213944 0.07283591 0.58204202 255 123 114
0.75186034 0.06004604 0.58208019 255 123 114
0.75158124 0.04725616 0.58211836 255 123 114
0.75130215 0.03446628 0.58215653 255 123 114
0.75102305 0.02167641 0.58219470 255 123 114
0.75074395 0.00888653 0.58223287 255 123 114
0.75046485 -0.00390335 0.58227104 255 123 114
0.75018576 -0.01669322 0.58230921 255 123 114
0.74990666 -0.02948310 0.58234738 255 123 114
0.74962756 -0.04227298 0.58238555 255 123 114
0.74934846 -0.05506286 0.58242372 255 123 114
0.74906937 -0.06785273 0.58246189 255 123 114
0.74879027 -0.08064261 0.58250006 255 123 114
0.74851117 -0.09343249 0.58253823 255 123 114
0.74823207 -0.10622236 0.58257640 255 123 114
1.24279905 -1.29424300 0.06966583 126 231 135
1.23257128 -1.29980263 0.08763522 126 231 135
1.22234350 -1.30536226 0.10560461 126 231 135
1.21211573 -1.31092189 0.12357400 126 231 135
1.20188795 -1.31648152 0.14154339 126 231 135
1.19166018 -1.32204115 0.15951278 126 231 135
1.18143240 -1.32760078 0.17748217 126 231 135
1.17120463 -1.33316041 0.19545156 126 231 135
1.16097685 -1.33872004 0.21342095 126 231 135
1.15074908 -1.34427967 0.23139034 126 231 135
1.14052130 -1.34983930 0.24935973 126 231 135
1.13029353 -1.35539893 0.26732912 126 231 135
1.12006576 -1.36095856 0.28529851 126 231 135
1.10983798 -1.36651819 0.30326790 126 231 135
1.09961021 -1.37207782 0.32123729 126 231 135
1.08938243 -1.37763745 0.33920668 126 231 135
1.07915466 -1.38319708 0.35717607 126 231 135
1.06892688 -1.38875671 0.37514547 126 231 135
1.05869911 -1.39431634 0.39311486 126 231 135
1.04847133 -1.39987597 0.41108425 126 231 135
1.03824356 -1.40543560 0.42905364 126 231 135
1.02801578 -1.41099523 0.44702303 126 231 135
1.01778801 -1.41655486 0.46499242 126 231 135
1.00756023 -1.42211449 0.48296181 126 231 135
1.24279905 -1.29424300 0.06966583 126 231 135
1.25081719 -1.30011363 0.08863056 126 231 135
1.25883532 -1.30598427 0.10759529 126 231 135
1.26685346 -1.31185490 0.12656002 126 231 135
1.27487159 -1.31772554 0.14552476 126 231 135
1.28288972 -1.32359617 0.16448949 126 231 135
1.29090786 -1.32946681 0.18345422 126 231 135
1.29892599 -1.33533744 0.20241895 126 231 135
1.30694413 -1.34120808 0.22138368 126 231 135
1.31496226 -1.34707871 0.24034841 126 231 135
1.32298039 -1.35294935 0.25931314 126 231 135
1.33099853 -1.35881998 0.27827787 126 231 135
1.33901666 -1.36469062 0.29724260 126 231 135
1.34703480 -1.37056125 0.31620733 126 231 135
1.35505293 -1.37643189 0.33517207 126 231 135
1.36307106 -1.38230252 0.35413680 126 231 135
1.37108920 -1.38817316 0.37310153 126 231 135
1.37910733 -1.39404379 0.39206626 126 231 135
1.38712547 -1.39991443 0.41103099 126 231 135
1.39514360 -1.40578506 0.42999572 126 231 135
1.40316173 -1.41165570 0.44896045 126 231 135
1.41117987 -1.41752633 0.46792518 126 231 135
1.41919800 -1.42339697 0.48688991 126 231 135
1.42721614 -1.42926760 0.50585465 126 231 135
1.24279905 -1.29424300 0.06966583 126 231 135
1.25106020 -1.28733127 0.08816981 126 231 135
1.25932135 -1.28041953 0.10667379 126 231 135
1.26758249 -1.27350780 0.12517777 126 231 135
1.27584364 -1.26659606 0.14368175 126 231 135
1.28410479 -1.25968433 0.16218573 126 231 135
1.29236593 -1.25277259 0.18068971 126 231 135
1.30062708 -1.24586086 0.19919368 126 231 135
1.30888823 -1.23894913 0.21769766 126 231 135
1.31714937 -1.23203739 0.23620164 126 231 135
1.32541052 -1.22512566 0.25470562 126 231 135
1.33367166 -1.21821392 0.27320960 126 231 135
1.34193281 -1.21130219 0.29171358 126 231 135
1.35019396 -1.20439046 0.31021756 126 231 135
1.35845510 -1.19747872 0.32872154 126 231 135
1.36671625 -1.19056699 0.34722552 126 231 135
1.37497740 -1.18365525 0.36572950 126 231 135
1.38323854 -1.17674352 0.38423348 126 231 135
1.39149969 -1.16983179 0.40273745 126 231 135
1.39976084 -1.16292005 0.42124143 126 231 135
1.40802198 -1.15600832 0.43974541 126 231 135
1.41628313 -1.14909658 0.45824939 126 231 135
1.42454428 -1.14218485 0.47675337 126 231 135
1.43280542 -1.13527311 0.49525735 126 231 135
1.24279905 -1.29424300 0.06966583 126 231 135
1.23281429 -1.28702026 0.08717447 126 231 135
1.22282953 -1.27979752 0.10468311 126 231 135
1.21284477 -1.27257478 0.12219175 126 231 135
1.20286000 -1.26535204 0.13970038 126 231 135
1.19287524 -1.25812931 0.15720902 126 231 135
1.18289048 -1.25090657 0.17471766 126 231 135
1.17290572 -1.24368383 0.19222630 126 231 135
1.16292095 -1.23646109 0.20973494 126 231 135
1.15293619 -1.22923835 0.22724358 126 231 135
1.14295143 -1.22201561 0.24475221 126 231 135
1.13296667 -1.21479287 0.26226085 126 231 135
1.12298190 -1.20757013 0.27976949 126 231 135
1.11299714 -1.20034739 0.29727813 126 231 135
1.10301238 -1.19312466 0.31478677 126 231 135
1.09302762 -1.18590192 0.33229541 126 231 135
1.08304285 -1.17867918 0.34980404 126 231 135
1.07305809 -1.17145644 0.36731268 126 231 135
1.06307333 -1.16423370 0.38482132 126 231 135
1.05308857 -1.15701096 0.40232996 126 231 135
1.04310380 -1.14978822 0.41983860 126 231 135
1.03311904 -1.14256548 0.43734723 126 231 135
1.02313428 -1.13534275 0.45485587 126 231 135
1.01314952 -1.12812001 0.47236451 126 231 135
1.00756023 -1.42211449 0.48296181 126 231 135
1.02580614 -1.42242550 0.48395715 126 231 135
1.04405205 -1.42273650 0.48495249 126 231 135
1.06229796 -1.42304751 0.48594783 126 231 135
1.08054387 -1.42335851 0.48694317 126 231 135
1.09878978 -1.42366952 0.48793851 126 231 135
1.11703569 -1.42398052 0.48893385 126 231 135
1.13528159 -1.42429153 0.48992919 126 231 135
1.15352750 -1.42460253 0.49092453 126 231 135
1.17177341 -1.42491354 0.49191987 126 231 135
1.19001932 -1.42522454 0.49291521 126 231 135
1.20826523 -1.42553554 0.49391056 126 231 135
1.22651114 -1.42584655 0.49490590 126 231 135
1.24475705 -1.42615755 0.49590124 126 231 135
1.26300296 -1.42646856 0.49689658 126 231 135
1.28124887 -1.42677956 0.49789192 126 231 135
1.29949477 -1.42709057 0.49888726 126 231 135
1.31774068 -1.42740157 0.49988260 126 231 135
1.33598659 -1.42771258 0.50087794 126 231 135
1.35423250 -1.42802358 0.50187328 126 231 135
1.37247841 -1.42833459 0.50286862 126 231 135
1.39072432 -1.42864559 0.50386396 126 231 135
1.40897023 -1.42895660 0.50485930 126 231 135
1.42721614 -1.42926760 0.50585465 126 231 135
1.42721614 -1.42926760 0.50585465 126 231 135
1.42745915 -1.41648523 0.50539389 126 231 135
1.42770216 -1.40370286 0.50493314 126 231 135
1.42794517 -1.39092049 0.50447239 126 231 135
1.42818819 -1.37813812 0.50401164 126 231 135
1.42843120 -1.36535576 0.50355089 126 231 135
1.42867421 -1.35257339 0.50309013 126 231 135
1.42891722 -1.33979102 0.50262938 126 231 135
