ply
format ascii 1.0
element vertex 298
property float x
property float y
property float z
property uchar red
property uchar green
property uchar blue
end_header
-0.21187358 -0.02055502 4.93198142 190 183 167
0.03295613 0.45269704 5.03727079 195 181 155
0.17354645 0.06500306 5.03067685 89 100 106
0.32263887 0.03652139 5.09275687 167 158 144
-0.11104764 0.12479739 4.96177619 81 95 105
-0.03470823 -0.53395044 4.83733360 145 131 118
-0.04940921 0.11666548 4.97275470 146 158 166
-0.16327751 0.93514592 5.06876175 85 102 111
-0.04569028 0.76697174 5.05259236 199 192 173
0.07692536 0.44892356 5.04366943 181 176 157
-0.24460410 1.05588602 5.11135116 92 110 120
-0.24578787 1.05932132 5.11990788 96 114 123
0.34462847 -0.12506594 5.08988458 172 181 189
0.22400948 0.44368685 5.07366076 198 184 158
-0.39609591 0.34080440 4.99842571 114 132 146
0.05651975 -0.55073832 4.85937799 157 139 127
0.38674881 -0.01263817 5.13597456 110 117 123
-0.03436659 -0.53373043 4.84045211 145 131 118
0.26197297 -0.60400373 4.94943858 143 121 108
0.31037489 0.49855181 5.12534305 197 186 166
-0.05827874 -0.21562340 4.92732403 111 124 132
-0.20092459 0.16232090 4.94726183 182 177 160
0.07082776 0.43416342 5.05167962 39 39 33
-0.36639921 -0.48058111 4.80434237 170 170 164
0.00836594 -0.55059466 4.85054979 75 72 72
0.09131423 -0.56228358 4.87532048 151 134 124
-0.26659947 -0.48868510 4.81168247 155 147 133
-0.17903834 -0.34280040 4.86526359 53 62 67
0.18471916 -0.25083896 4.98280233 182 169 153
0.09476935 -0.23052102 4.96060044 155 146 130
0.49727401 1.38987394 4.39543879 152 139 120
-0.62568410 -0.62884995 4.81742881 142 160 170
-0.32529157 -0.48590410 4.80331420 152 145 136
-0.99442386 -0.48093308 5.10912735 189 195 183
0.03120763 0.43635188 5.04564393 185 171 145
0.50650297 1.34194398 4.40183109 222 208 181
-0.66521482 0.60017597 5.17619292 196 196 186
-0.35184514 -0.49950525 4.80233560 72 86 95
-0.89834434 -0.47024030 5.02180422 204 212 199
0.08452302 0.32082835 5.04430940 255 250 229
-0.01580524 -0.30132424 4.91754060 47 61 72
0.22249509 -0.27014858 5.00073012 64 66 67
-0.04407638 -0.30221225 4.90916367 54 68 79
0.48291892 0.52080990 5.23125199 10 18 21
0.04314849 0.41890835 5.04609565 30 32 30
0.35443821 -0.63407977 5.00107853 171 160 151
0.03124705 0.41898680 5.04014489 219 209 189
0.45260724 0.56429164 5.20484008 19 24 27
-0.16099182 -0.34729456 4.86783648 52 61 68
-0.10788056 -0.28064376 4.89433547 51 68 80
0.33670962 0.36238511 5.12141655 171 158 141
-0.16232217 0.02969915 4.94084271 48 64 78
-0.00825289 -0.54701301 4.84662444 64 61 64
-0.13418103 -0.17671956 4.90271284 195 190 171
-0.04407638 -0.30221225 4.90916367 54 68 79
-0.32529157 -0.48590410 4.80331420 152 145 136
-0.70447803 -0.61580926 4.85019046 125 148 164
-0.19481487 -0.20494666 4.88940363 44 60 73
-0.26959102 -0.27110155 4.86583062 64 80 92
-0.46909197 0.02229096 4.94011819 211 216 205
-0.15586312 -0.19744203 4.90144167 53 67 76
0.05721924 -0.39788740 4.92507709 42 46 53
-0.10788056 -0.28064376 4.89433547 51 68 80
0.45813484 -0.02011755 5.18659222 170 165 157
-0.01568082 -0.38175986 4.90795840 53 56 61
-0.66124960 -0.61229339 4.82975262 116 134 150
0.49701262 1.40023677 4.39207934 203 193 175
-0.08934833 -0.68760017 4.76067428 184 177 159
0.02469985 0.49204005 5.02916817 198 186 162
-0.41337742 0.78765928 5.10016332 194 192 179
0.59634420 1.37181341 4.40829667 205 194 174
0.06760638 0.33543811 5.03998973 230 255 255
0.10869306 1.16089320 5.12994774 130 94 72
0.37426714 0.93491356 5.20358124 77 82 85
-0.33003317 -0.15511941 4.89154756 59 69 71
-0.00396141 0.37751946 5.02969223 142 156 167
0.08998614 -0.72227724 4.81519861 117 124 129
0.23442039 0.38054921 5.07797258 161 152 135
0.01971216 -0.32383032 4.92667585 48 63 74
0.06009860 -0.22095848 4.94628522 203 194 177
0.04826669 -0.33676375 4.93207320 53 66 78
0.33622775 0.65587273 5.15678734 99 108 114
0.06444503 0.00882113 4.98409238 42 56 67
-0.18190685 -0.51428683 4.81807061 70 71 73
0.21321731 -0.09855253 5.02715485 43 49 54
-0.62568410 -0.62884995 4.81742881 142 160 170
-0.07726855 -0.35927636 4.89282174 56 66 74
0.43878670 -0.03577525 5.17596798 86 98 106
-0.19198710 0.15604036 4.95138579 217 216 204
-0.07726855 -0.35927636 4.89282174 56 66 74
0.03627137 -0.27653462 4.93238944 42 54 64
-0.14742698 -0.01472534 4.93490223 50 64 73
0.08391078 1.32538163 4.70918366 218 225 218
0.40325171 0.49657928 5.16823252 72 83 89
0.37436362 0.56448615 5.15460005 30 41 47
0.28382823 -0.28170451 5.01927288 146 135 122
0.47771124 0.11903278 5.21391602 181 178 171
0.25664702 0.96849050 5.16142542 79 88 93
-0.21029359 -0.26582825 4.87692080 44 62 72
0.12036490 -0.36648737 4.94564638 56 66 76
0.11612486 -0.39498389 4.94034594 52 62 73
0.31710823 0.35962979 5.11541958 170 157 140
-0.26359234 0.00549857 4.92314549 52 68 76
-0.11087201 -0.02238989 4.94127302 65 74 82
0.13297148 -0.41272572 4.94217472 78 87 95
-0.20664629 -0.22511951 4.88281897 57 74 86
-0.32757976 0.17560648 4.95243160 202 202 190
-0.08882307 -0.28400457 4.90011807 53 67 77
0.28572953 -0.44918914 4.99135073 50 59 67
-0.09044667 -0.29867191 4.89827279 56 70 79
-0.26959102 -0.27110155 4.86583062 64 80 92
0.12097493 -0.42112750 4.94191428 171 162 152
0.11612486 -0.39498389 4.94034594 52 62 73
0.04683041 -0.21386705 4.94959365 190 182 163
-0.29189828 -0.32318835 4.85312785 37 57 69
0.12036490 -0.36648737 4.94564638 56 66 76
0.55537728 1.52038307 4.43336782 204 197 181
0.48847551 -0.06229090 5.21635024 122 138 151
-0.12491484 -0.35604837 4.87694046 49 53 60
0.08378189 -0.56751653 4.87125601 56 52 52
-0.06261157 0.05067386 4.96258659 47 62 75
-0.09631046 0.00918978 4.95036383 52 67 79
-0.76834253 -0.46638807 4.93275772 96 114 119
-0.34917726 -0.26010593 4.86431717 69 88 102
-0.06705942 0.01050253 4.95104402 48 63 76
0.04826669 -0.33676375 4.93207320 53 66 78
0.08581711 -0.69785307 4.81412566 54 61 69
0.06444503 0.00882113 4.98409238 42 56 67
0.36517090 -0.14646259 5.10336277 67 74 81
-0.20527972 -0.00373789 4.92869380 86 96 102
0.08452302 0.32082835 5.04430940 255 250 229
-0.68722412 -0.29695100 4.93360983 82 104 115
-0.14202650 -0.35205672 4.87171985 59 66 71
-0.04870442 -0.34416497 4.90176359 47 61 72
0.06444503 0.00882113 4.98409238 42 56 67
0.25234366 -0.44101036 4.97789126 65 66 73
-0.15579857 -0.29099430 4.88396051 59 73 84
0.07897553 -0.67342063 4.81322853 51 55 64
-0.06998796 -0.36927241 4.89191399 53 59 65
-0.66124960 -0.61229339 4.82975262 116 134 150
0.20762481 -0.26608914 4.99609801 62 67 71
0.01978408 1.27356789 5.08440054 33 37 38
0.29180921 0.23318188 5.08666935 48 57 64
0.33935237 -0.50975718 5.01937376 202 188 172
0.44434748 0.45136857 5.19947768 187 179 163
-0.09492870 -0.35502071 4.88774138 48 57 66
0.48071336 -0.03025408 5.20853562 201 198 189
0.01971216 -0.32383032 4.92667585 48 63 74
0.03627137 -0.27653462 4.93238944 42 54 64
0.18761589 -0.59329471 4.90845179 63 58 59
-0.75493802 -0.46659268 4.92302639 85 107 118
0.02627319 0.10733505 4.98305330 66 73 79
0.44023523 -0.66794859 5.07824185 192 194 193
0.02102944 0.36986654 5.03575397 16 21 25
-0.30513549 -0.55210362 4.77479922 49 65 76
0.05721924 -0.39788740 4.92507709 42 46 53
-0.21559362 -0.33643465 4.85968192 61 74 85
-0.01712901 -0.31540669 4.91346447 45 59 70
0.18945342 -0.39547437 4.96034113 53 63 73
0.45547314 0.30195877 5.20106589 169 166 158
0.21122454 -0.72673629 4.87464533 53 62 71
0.02085778 -0.70363870 4.78955466 72 81 89
0.20153174 0.07723203 5.03369188 207 196 176
-0.04363289 -0.68131580 4.76588418 54 64 73
-0.32502361 -0.55035327 4.77936080 58 74 87
0.32292712 0.52424833 5.11322947 23 28 31
-0.17969014 -0.64418878 4.74811342 67 81 90
0.09644447 -0.32516526 4.94410457 47 58 69
0.56793118 0.23684078 5.35341822 178 188 187
-0.25351013 -0.32950775 4.85740606 51 65 73
0.21890383 -0.72078847 4.87939390 48 57 66
-0.19198710 0.15604036 4.95138579 217 216 204
-0.36770293 -0.32057718 4.85602369 191 198 187
-0.07195435 -0.03090545 4.94698227 39 48 52
-0.03340811 -0.37765518 4.90359401 53 61 65
0.52360506 1.34575238 4.40464692 172 158 132
0.02078979 -0.38981290 4.91719894 52 54 56
-0.26429209 -0.55697833 4.77387975 54 67 76
-0.32451260 -0.53724816 4.78127283 59 75 88
0.20377713 -0.71689343 4.87310058 52 59 69
0.11365723 -0.40964431 4.93930113 46 55 62
-0.08625473 -0.25666892 4.90424944 52 66 75
0.00176062 -0.69936167 4.78105127 54 59 67
-0.09631046 0.00918978 4.95036383 52 67 79
0.13584819 -0.71237305 4.83674099 76 84 94
0.17337239 -0.25747154 4.98166526 46 46 48
0.24774696 -0.00340742 5.05079402 52 62 70
-0.50166134 -0.46723797 4.82324286 195 199 192
0.18526202 -0.72696581 4.85955484 57 66 75
-0.17191452 -0.66674394 4.74832155 57 70 76
-0.78378254 -0.46804793 4.93873332 95 117 128
-0.18856483 -0.63630056 4.75511221 60 76 89
-0.02258054 -0.67158116 4.77547341 57 66 75
0.05602124 1.14135152 5.16283483 156 140 124
0.11206032 -0.69723804 4.82753580 71 80 89
0.12149040 -0.24496298 4.96642215 59 62 61
-0.38506170 -0.71670648 4.78273346 244 238 221
-0.71525303 -0.51554955 4.88958133 84 110 126
0.38135268 -0.15205554 5.11180736 54 58 61
0.16699841 -0.42040201 4.95030977 68 73 81
0.08581711 -0.69785307 4.81412566 54 61 69
0.12894906 -0.28277357 4.96044882 58 66 77
-0.68722412 -0.29695100 4.93360983 82 104 115
0.47921005 -0.69973515 5.13163507 98 119 136
0.21832319 -0.36662343 4.97643383 46 54 65
0.21943204 -0.43280427 4.96692611 50 54 61
0.34412733 -0.40272329 5.03752197 61 66 77
0.03943000 -0.39421192 4.92164028 46 52 59
-0.32451260 -0.53724816 4.78127283 59 75 88
-0.13156752 -0.14877029 4.91088768 147 140 121
-0.25981042 -0.63588955 4.74807411 75 91 104
-0.25522265 -0.59284835 4.75860728 64 78 87
0.12894906 -0.28277357 4.96044882 58 66 77
-0.12073883 -0.65330761 4.75739808 60 73 82
-0.85747330 -0.62664945 4.93103586 113 130 135
-0.23168490 -0.65991602 4.74766298 54 68 77
-0.01247076 -0.66608415 4.77798252 60 67 75
-0.00142196 -0.70640706 4.77644966 220 210 192
-0.25085255 -0.16689669 4.89015087 60 73 79
0.49756867 0.27275862 5.24384868 179 184 183
0.47599924 1.39708859 4.39252084 150 137 118
-0.08181653 -0.21422039 4.91519457 54 67 75
0.50256119 0.43814863 5.23368061 14 21 23
-0.26887038 -0.62642970 4.75570878 52 70 80
-0.51589363 -0.13063823 4.91489123 220 230 219
-0.20664629 -0.22511951 4.88281897 57 74 86
0.10246541 -0.70329239 4.81336928 59 68 77
0.07343602 -0.24260752 4.95053971 58 67 75
0.33169470 -0.37108290 5.03222303 56 65 74
-0.17750273 -0.04940475 4.91898470 205 198 179
-0.18565288 -0.29977848 4.87324586 173 187 190
0.24337762 -0.73457048 4.89492118 59 71 83
0.07875531 -0.68806484 4.81392064 49 54 64
-0.64408571 -0.10159554 4.96029474 175 176 158
-0.26437984 -0.58416018 4.76409784 62 76 87
0.31975192 -0.33929487 5.03586009 48 55 63
-0.07216622 -0.66894188 4.76685359 51 61 70
-0.16595886 -0.61094394 4.75649053 56 69 77
-0.66013193 0.33513733 5.08906546 65 87 100
0.32880916 -0.39799113 5.02779865 59 66 74
0.56338052 0.06570277 5.31188004 180 185 188
-0.26348335 -0.51843846 4.79302312 53 63 73
0.34194918 1.07633728 5.25298510 49 56 59
0.18188276 0.33784461 5.01741532 117 139 153
-0.29562708 -0.05637693 4.90701921 213 208 188
-0.20119487 -0.65652948 4.74429177 67 84 94
-0.04695826 -0.38001427 4.89500244 141 130 121
-0.71525303 -0.51554955 4.88958133 84 110 126
0.05207539 1.55294918 4.46781038 139 144 137
-0.26280540 -0.53149747 4.78531572 46 59 68
-1.07824658 -0.53361076 5.19620774 108 125 133
-0.25083994 -0.62157479 4.75003744 192 208 218
0.34359712 -0.41675524 5.03564901 43 50 60
-1.06382249 -0.19101592 5.23578685 173 176 169
-0.34701687 -0.57416666 4.77032857 62 81 95
0.49813073 0.25350566 5.24337428 83 100 111
0.05707477 1.14717940 5.17798078 152 135 118
-0.13156752 -0.14877029 4.91088768 147 140 121
-0.42064379 -0.62103277 4.75355150 73 93 105
0.37641088 -0.61417987 5.01889783 210 199 189
-0.42064379 -0.62103277 4.75355150 73 93 105
0.09437188 1.21448622 5.15417510 140 109 88
-0.17733282 0.26899812 2.13027308 77 94 104
-0.04988704 0.25253030 2.12759550 79 90 95
-0.09393955 0.15822611 2.09869010 47 58 67
-0.05301696 0.19511999 2.11416929 93 106 112
-0.12234724 0.16310024 2.09592956 78 93 102
-0.04984222 0.25302508 2.12832219 66 77 83
-0.08140635 0.30023223 2.13851125 81 94 100
-0.11024418 0.16115005 2.09595715 53 65 73
-0.03330969 0.19590667 2.11720952 158 152 135
-0.12600746 0.06210231 2.05647317 67 78 79
-0.21287788 0.15942811 2.10405667 195 197 181
-0.15033037 0.06286155 2.05826137 53 71 76
-0.20883341 -0.01616314 2.14533831 173 128 69
0.19781839 0.63051492 2.16421812 191 191 178
-0.18708883 -0.05094967 2.16219116 211 169 111
0.13817632 0.38568640 2.23241443 18 27 30
0.10306357 0.04927574 2.12216766 135 127 116
0.12525970 0.08845082 2.14666540 92 110 118
-0.08301242 -0.08356596 2.17412174 156 116 57
0.12600834 0.08198592 2.14680649 184 188 183
-0.04111555 -0.07470688 2.16863626 209 169 110
-0.08301242 -0.08356596 2.17412174 156 116 57
-0.18142780 -0.03038815 2.14938115 162 117 57
-0.10026466 0.00108009 2.13139379 193 150 95
0.00185377 -0.06473371 2.16799357 161 120 63
0.05468247 -0.08988945 2.19417630 172 132 73
-0.13269130 -0.03286196 2.14637084 192 147 90
0.01122877 -0.03599671 2.15223543 162 120 62
-0.11545234 -0.03186523 2.14650669 148 103 46
-0.02113445 -0.02004842 2.14221182 157 115 56
-0.03874488 -0.00992597 2.13512306 193 151 96
-0.04052271 -0.01800123 2.13861703 149 103 44
-0.05853841 -0.07977151 2.17073574 209 169 111
-0.05335096 -0.04055043 2.14887456 147 99 41
-0.05896280 -0.04460729 2.15088794 197 155 97
-0.14635012 -0.06277264 2.16437634 206 161 102
